475390.35 7865887.26 68.73 
475389.88 7865889.92 68.60 
475384.21 7865890.37 68.58 
475382.27 7865884.39 70.70 
475387.93 7865888.33 70.09 
475385.19 7865887.64 68.64 
475391.33 7865889.77 70.02 
475381.17 7865886.72 68.63 
475376.09 7865886.58 68.56 
475387.91 7865885.15 68.76 
475386.71 7865885.17 68.73 
475384.39 7865889.41 68.58 
475383.95 7865886.93 68.66 
475377.33 7865885.59 68.61 
475388.51 7865886.62 68.71 
475379.47 7865883.58 68.64 
475385.62 7865886.50 68.69 
475381.53 7865888.44 68.58 
475385.50 7865885.97 68.67 
475386.33 7865890.47 69.51 
475383.44 7865890.67 68.54 
475376.73 7865887.46 70.80 
475380.43 7865889.23 72.42 
475379.68 7865886.03 68.63 
475380.81 7865889.63 72.37 
475376.76 7865888.47 70.70 
475383.84 7865888.52 68.61 
475384.43 7865884.61 68.71 
475379.15 7865886.98 68.61 
475382.72 7865886.96 70.64 
475387.07 7865885.51 68.73 
475383.98 7865886.55 68.66 
475387.17 7865884.62 68.72 
475378.80 7865886.95 70.93 
475386.62 7865883.61 68.74 
475377.53 7865888.79 70.69 
475379.10 7865885.36 68.64 
475392.89 7865883.96 68.92 
475391.99 7865889.03 70.15 
475391.90 7865888.04 68.72 
475391.70 7865883.66 68.91 
475392.20 7865890.55 68.68 
475393.71 7865888.92 68.72 
475392.92 7865889.33 68.68 
475392.97 7865888.53 68.74 
475393.75 7865885.94 68.88 
475391.74 7865890.47 68.66 
475392.17 7865890.23 68.67 
475391.93 7865885.07 68.89 
475393.29 7865888.58 68.71 
475391.80 7865888.52 70.17 
475393.71 7865887.52 68.82 
475391.72 7865887.62 68.75 
475393.04 7865890.02 68.69 
475392.69 7865885.71 68.88 
475393.00 7865885.99 68.86 
475393.75 7865890.72 68.71 
475393.34 7865886.93 68.85 
475393.49 7865890.14 68.70 
475392.58 7865884.19 68.89 
475393.46 7865888.96 68.71 
475393.71 7865886.18 68.88 
475393.41 7865887.87 68.80 
475392.66 7865883.71 68.92 
475393.75 7865890.17 68.71 
475392.75 7865887.43 68.81 
475391.70 7865890.69 68.65 
475393.47 7865886.20 68.86 
475392.19 7865889.22 70.06 
475393.05 7865890.11 68.71 
475392.96 7865884.37 68.92 
475391.68 7865887.84 68.70 
475392.51 7865886.13 68.86 
475391.90 7865890.90 68.66 
475392.06 7865884.36 68.89 
475392.67 7865890.78 68.67 
475392.30 7865885.59 68.88 
475393.12 7865889.55 68.71 
475392.45 7865887.77 68.74 
475393.46 7865884.72 68.91 
475392.14 7865889.47 70.12 
475393.08 7865884.18 68.93 
475392.42 7865887.04 68.82 
475393.06 7865885.88 68.88 
475392.42 7865886.62 68.84 
475393.49 7865887.39 68.84 
475391.98 7865887.55 68.76 
475392.65 7865887.88 68.79 
475392.26 7865889.58 70.13 
475393.08 7865889.79 68.70 
475392.80 7865889.22 70.05 
475391.91 7865883.91 68.89 
475393.13 7865883.92 68.93 
475391.72 7865886.29 68.84 
475391.78 7865884.62 68.89 
475392.93 7865883.74 68.92 
475392.49 7865886.69 68.84 
475392.40 7865889.36 69.92 
475393.66 7865889.17 68.70 
475392.15 7865886.59 68.82 
475392.41 7865890.74 68.68 
475393.79 7865888.44 68.75 
475392.32 7865884.25 68.88 
475393.60 7865887.44 68.86 
475393.38 7865886.52 68.86 
475392.37 7865885.38 68.87 
475392.04 7865888.72 70.12 
475391.73 7865890.40 68.68 
475393.67 7865887.78 68.80 
475391.99 7865883.43 68.92 
475392.72 7865884.92 68.89 
475393.62 7865886.66 68.86 
475391.85 7865888.28 70.17 
475393.39 7865888.45 68.77 
475391.86 7865889.73 69.95 
475392.57 7865889.78 70.07 
475391.77 7865884.01 68.89 
475392.76 7865884.70 68.88 
475393.41 7865890.61 68.69 
475393.13 7865885.27 68.90 
475392.32 7865885.63 68.87 
475393.33 7865884.54 68.93 
475392.22 7865888.03 68.75 
475392.88 7865888.08 68.76 
475393.37 7865888.10 68.77 
475392.44 7865889.12 70.01 
475393.37 7865890.53 68.72 
475392.02 7865885.93 68.86 
475392.88 7865889.56 68.73 
475392.10 7865884.11 68.91 
475392.07 7865887.08 68.82 
475392.19 7865884.97 68.90 
475393.54 7865889.88 68.71 
475392.97 7865883.48 68.94 
475392.28 7865885.86 68.86 
475393.25 7865884.55 68.90 
475393.72 7865888.84 68.74 
475393.59 7865885.48 68.91 
475392.92 7865887.85 68.77 
475391.93 7865885.38 68.89 
475393.58 7865886.91 68.86 
475392.28 7865887.72 68.79 
475391.73 7865886.37 68.84 
475392.41 7865889.36 68.68 
475391.76 7865890.06 70.09 
475392.78 7865888.58 69.89 
475392.91 7865890.79 68.70 
475392.65 7865887.93 69.71 
475391.94 7865886.40 68.84 
475393.41 7865889.21 68.69 
475392.92 7865886.54 68.83 
475393.62 7865889.40 68.71 
475393.46 7865887.62 68.84 
475392.87 7865886.71 68.83 
475392.21 7865887.81 68.75 
475392.10 7865886.59 68.86 
475391.69 7865890.41 69.99 
475392.71 7865883.46 68.91 
475392.79 7865885.85 68.86 
475393.03 7865884.01 68.95 
475393.04 7865887.12 68.82 
475393.26 7865889.11 68.71 
475393.13 7865885.54 68.90 
475392.36 7865889.60 70.15 
475392.65 7865889.30 70.09 
475393.13 7865888.13 68.75 
475393.22 7865887.64 68.81 
475392.49 7865890.26 68.73 
475392.25 7865887.58 68.76 
475393.00 7865884.65 68.89 
475392.31 7865889.56 68.62 
475392.82 7865888.34 69.69 
475392.07 7865888.55 70.16 
475393.05 7865888.60 68.71 
475392.83 7865885.03 68.90 
475393.42 7865886.45 68.86 
475391.70 7865885.11 68.87 
475391.72 7865889.01 70.05 
475392.02 7865890.17 70.01 
475393.05 7865884.40 68.89 
475392.79 7865888.57 68.67 
475391.83 7865887.94 68.73 
475393.78 7865888.52 68.76 
475393.34 7865884.07 68.94 
475392.34 7865889.25 69.98 
475392.49 7865887.54 68.79 
475392.80 7865884.44 68.90 
475393.21 7865886.16 68.83 
475393.54 7865888.48 68.74 
475392.23 7865885.93 68.87 
475391.83 7865889.75 70.07 
475392.10 7865888.41 70.17 
475392.63 7865890.23 68.69 
475393.64 7865885.24 68.92 
475392.92 7865886.47 68.81 
475392.78 7865887.22 68.83 
475393.79 7865885.69 68.90 
475392.84 7865889.81 68.70 
475392.83 7865885.61 68.86 
475393.45 7865886.20 68.88 
475392.84 7865889.20 68.69 
475391.89 7865887.60 68.77 
475393.17 7865883.69 68.94 
475392.58 7865890.24 70.03 
475393.66 7865887.11 68.87 
475393.58 7865885.53 68.92 
475392.83 7865889.82 69.72 
475392.83 7865888.33 68.73 
475392.19 7865883.64 68.91 
475392.27 7865888.74 70.06 
475391.74 7865884.87 68.89 
475393.26 7865887.41 68.83 
475392.99 7865886.20 68.85 
475392.76 7865885.35 68.89 
475392.65 7865883.91 68.92 
475391.68 7865886.52 68.82 
475392.45 7865890.49 68.69 
475392.48 7865890.26 69.94 
475392.83 7865886.96 68.81 
475391.98 7865884.84 68.89 
475393.25 7865885.93 68.86 
475392.01 7865885.02 68.90 
475392.38 7865886.84 68.82 
475393.38 7865883.82 68.95 
475393.54 7865887.14 68.85 
475392.72 7865887.54 68.81 
475392.03 7865888.78 70.16 
475392.49 7865890.89 68.69 
475392.98 7865890.45 68.70 
475393.46 7865888.11 68.80 
475392.31 7865888.51 70.13 
475393.16 7865890.66 68.71 
475391.99 7865890.42 68.67 
475391.85 7865885.56 68.85 
475391.77 7865886.04 68.85 
475392.75 7865888.81 68.73 
475392.75 7865886.10 68.85 
475393.38 7865885.20 68.91 
475392.24 7865890.32 68.68 
475393.51 7865885.97 68.87 
475393.59 7865884.01 68.93 
475392.36 7865888.26 69.99 
475391.77 7865887.37 68.75 
475393.17 7865886.41 68.83 
475393.12 7865890.89 68.69 
475392.23 7865888.99 70.05 
475393.33 7865888.78 68.73 
475392.24 7865886.11 68.86 
475392.62 7865888.15 68.80 
475393.38 7865886.68 68.84 
475391.78 7865890.21 70.03 
475391.69 7865889.23 68.82 
475393.63 7865888.00 68.80 
475392.61 7865889.54 70.13 
475392.96 7865884.89 68.88 
475392.66 7865886.58 68.81 
475392.34 7865887.09 68.83 
475392.11 7865885.44 68.87 
475393.33 7865889.70 68.70 
475393.12 7865889.79 68.71 
475392.35 7865887.36 68.82 
475391.74 7865883.43 68.91 
475392.18 7865888.05 70.02 
475393.04 7865888.21 68.77 
475391.95 7865889.26 70.08 
475393.79 7865889.92 68.71 
475393.00 7865887.37 68.82 
475391.89 7865886.66 68.83 
475391.90 7865889.51 69.92 
475392.51 7865884.59 68.91 
475393.45 7865890.36 68.70 
475393.54 7865883.53 68.98 
475391.69 7865884.36 68.91 
475392.45 7865883.52 68.89 
475392.21 7865884.04 68.91 
475393.37 7865889.45 68.72 
475392.03 7865890.90 68.68 
475393.55 7865884.24 68.92 
475392.14 7865884.36 68.91 
475391.87 7865885.70 68.88 
475392.58 7865888.22 68.74 
475392.55 7865886.38 68.85 
475392.11 7865888.30 70.16 
475393.42 7865884.97 68.91 
475392.75 7865890.29 68.69 
475393.72 7865884.86 68.95 
475393.10 7865883.69 68.95 
475393.40 7865884.19 68.95 
475392.84 7865884.21 68.91 
475392.72 7865889.57 70.06 
475392.20 7865889.91 70.10 
475392.66 7865887.92 68.76 
475392.91 7865889.34 70.03 
475393.79 7865887.04 68.86 
475393.50 7865888.74 68.72 
475392.53 7865888.64 69.98 
475392.47 7865888.58 70.07 
475393.08 7865885.51 68.88 
475391.82 7865884.39 68.88 
475392.41 7865885.15 68.87 
475393.00 7865888.85 68.68 
475393.75 7865888.69 68.73 
475392.40 7865888.03 70.06 
475392.16 7865888.07 70.08 
475393.76 7865884.52 68.95 
475393.63 7865883.76 68.97 
475392.68 7865885.17 68.88 
475392.07 7865884.71 68.91 
475392.57 7865888.41 70.14 
475393.30 7865890.86 68.71 
475393.13 7865886.65 68.83 
475392.66 7865889.88 70.10 
475392.36 7865884.01 68.90 
475393.24 7865887.18 68.86 
475393.21 7865884.78 68.88 
475392.95 7865890.51 68.69 
475392.74 7865888.82 69.89 
475392.56 7865890.54 68.71 
475392.54 7865890.01 68.72 
475391.81 7865885.80 68.85 
475392.10 7865889.70 70.08 
475391.95 7865883.66 68.91 
475392.87 7865889.57 70.07 
475392.85 7865886.88 68.84 
475392.40 7865888.90 70.08 
475393.42 7865883.59 68.96 
475392.40 7865883.77 68.90 
475392.58 7865884.26 68.90 
475393.53 7865887.77 68.83 
475392.54 7865887.29 68.80 
475393.72 7865884.75 68.93 
475393.19 7865885.20 68.91 
475393.65 7865885.18 68.93 
475393.33 7865888.35 68.74 
475391.89 7865885.33 68.87 
475392.03 7865887.30 68.80 
475393.64 7865889.19 68.73 
475392.99 7865890.27 68.69 
475392.70 7865889.05 70.01 
475393.58 7865889.65 68.71 
475392.02 7865884.60 68.89 
475392.88 7865885.36 68.87 
475393.30 7865884.31 68.91 
475393.29 7865889.93 68.70 
475392.37 7865885.25 68.90 
475393.73 7865886.76 68.89 
475392.77 7865889.55 68.68 
475393.58 7865888.25 68.76 
475392.28 7865883.69 68.91 
475392.54 7865888.24 70.05 
475392.90 7865888.89 68.70 
475391.68 7865889.23 70.05 
475392.44 7865884.93 68.90 
475391.85 7865886.89 68.81 
475393.58 7865889.50 68.73 
475391.96 7865887.27 68.80 
475392.11 7865886.83 68.82 
475392.71 7865883.59 68.92 
475392.55 7865885.88 68.88 
475393.34 7865885.45 68.89 
475392.78 7865890.05 70.05 
475392.79 7865890.05 68.73 
475392.63 7865886.02 68.86 
475393.79 7865884.50 68.98 
475391.80 7865886.05 68.86 
475392.03 7865886.94 68.83 
475393.16 7865889.31 68.69 
475391.87 7865884.15 68.90 
475392.70 7865889.87 68.69 
475393.19 7865889.45 68.71 
475391.76 7865888.76 70.15 
475393.52 7865885.84 68.90 
475392.49 7865884.67 68.90 
475392.63 7865885.40 68.89 
475391.96 7865889.08 70.11 
475393.04 7865885.74 68.86 
475391.71 7865888.30 70.16 
475391.77 7865888.75 68.63 
475393.62 7865890.88 68.68 
475393.51 7865889.86 68.72 
475391.79 7865887.96 70.02 
475392.59 7865885.66 68.86 
475392.48 7865888.89 70.08 
475393.66 7865890.66 68.70 
475393.17 7865885.03 68.89 
475393.09 7865888.37 68.74 
475392.15 7865883.88 68.90 
475392.90 7865884.68 68.91 
475392.92 7865885.14 68.88 
475392.54 7865884.42 68.90 
475392.71 7865887.67 68.78 
475392.06 7865889.94 69.98 
475393.67 7865883.53 68.97 
475393.47 7865883.86 68.96 
475393.20 7865889.06 68.70 
475393.11 7865887.86 68.80 
475393.17 7865887.55 68.83 
475392.61 7865888.16 70.02 
475391.89 7865888.05 70.01 
475391.79 7865890.21 68.69 
475393.30 7865887.16 68.84 
475392.06 7865885.69 68.87 
475392.96 7865889.09 68.68 
475392.27 7865890.08 70.08 
475392.53 7865890.01 70.03 
475392.15 7865885.21 68.88 
475393.55 7865885.72 68.89 
475392.62 7865883.94 68.91 
475392.71 7865886.33 68.84 
475392.91 7865890.75 68.68 
475392.23 7865884.73 68.89 
475391.95 7865890.66 68.66 
475391.83 7865883.68 68.90 
475391.94 7865887.79 68.74 
475392.38 7865889.23 68.64 
475392.30 7865887.33 68.81 
475393.30 7865885.68 68.87 
475393.21 7865890.41 68.69 
475393.21 7865883.44 68.95 
475392.16 7865890.80 68.65 
475391.81 7865887.13 68.78 
475393.08 7865886.89 68.84 
475393.75 7865887.29 68.84 
475391.98 7865886.17 68.84 
475393.50 7865884.49 68.94 
475393.25 7865890.18 68.69 
475393.66 7865886.43 68.87 
475392.96 7865886.23 68.83 
475393.17 7865887.89 68.78 
475392.45 7865884.90 68.89 
475392.31 7865889.84 70.09 
475393.31 7865886.87 68.86 
475392.28 7865884.48 68.89 
475393.68 7865885.00 68.92 
475393.71 7865890.40 68.71 
475393.44 7865890.18 68.72 
475392.71 7865890.53 68.69 
475391.90 7865889.39 70.08 
475391.82 7865889.98 70.07 
475392.79 7865887.19 68.82 
475392.47 7865886.37 68.85 
475392.20 7865886.34 68.86 
475392.96 7865887.61 68.80 
475392.62 7865886.81 68.81 
475393.26 7865884.86 68.91 
475393.24 7865888.83 68.69 
475392.13 7865890.24 70.07 
475392.10 7865890.57 68.70 
475392.58 7865887.06 68.82 
475392.45 7865888.88 68.61 
475392.17 7865886.27 68.86 
475393.37 7865890.84 68.70 
475392.16 7865889.46 68.59 
475367.23 7865891.91 68.59 
475371.17 7865897.16 68.48 
475374.86 7865892.39 73.03 
475366.98 7865891.11 68.61 
475373.68 7865896.30 73.62 
475370.40 7865898.85 68.51 
475368.08 7865906.24 68.42 
475374.29 7865891.95 72.82 
475373.29 7865897.65 73.41 
475374.53 7865895.26 73.21 
475366.60 7865898.42 68.51 
475369.65 7865906.07 68.41 
475373.45 7865902.24 73.23 
475369.57 7865894.12 68.54 
475373.48 7865904.32 73.05 
475372.40 7865898.07 72.99 
475376.03 7865904.00 73.07 
475369.16 7865891.84 68.55 
475368.98 7865894.03 68.54 
475374.58 7865893.82 72.85 
475373.17 7865893.25 68.55 
475368.20 7865899.06 68.53 
475367.48 7865900.47 68.51 
475374.92 7865890.96 73.01 
475375.94 7865896.00 73.59 
475366.75 7865903.06 68.42 
475366.50 7865902.32 68.47 
475367.74 7865894.65 68.54 
475375.47 7865895.08 73.17 
475371.33 7865905.43 68.43 
475374.58 7865895.04 73.11 
475368.46 7865893.20 68.57 
475367.18 7865897.33 68.55 
475374.11 7865902.14 73.53 
475375.38 7865900.65 74.21 
475370.46 7865898.53 68.53 
475367.47 7865891.72 68.60 
475366.57 7865904.02 68.42 
475369.52 7865894.36 68.52 
475367.75 7865902.44 68.45 
475372.63 7865905.22 72.73 
475374.46 7865906.46 68.41 
475367.27 7865900.42 68.52 
475373.74 7865899.06 73.56 
475369.29 7865894.52 68.53 
475373.25 7865895.20 73.11 
475372.33 7865898.90 72.90 
475374.79 7865904.52 72.90 
475369.44 7865897.59 68.52 
475373.81 7865893.64 68.52 
475366.90 7865898.97 68.53 
475367.14 7865893.64 68.61 
475369.33 7865901.08 68.50 
475368.15 7865904.72 68.40 
475372.84 7865899.50 73.12 
475369.99 7865898.77 68.53 
475367.57 7865896.71 68.54 
475374.73 7865901.19 73.86 
475368.79 7865891.53 68.57 
475371.66 7865906.09 68.43 
475374.20 7865902.61 73.57 
475370.69 7865901.79 68.45 
475368.48 7865903.04 68.43 
475366.58 7865891.93 68.61 
475375.77 7865891.23 73.20 
475373.75 7865894.78 72.96 
475368.94 7865898.59 68.52 
475366.56 7865897.61 68.53 
475372.41 7865902.96 72.73 
475367.16 7865895.54 68.53 
475369.89 7865899.26 68.50 
475374.32 7865893.01 72.78 
475373.33 7865894.08 68.54 
475371.08 7865903.14 69.76 
475373.21 7865891.26 68.54 
475368.22 7865905.51 68.41 
475371.19 7865901.00 68.51 
475368.95 7865900.64 68.51 
475366.51 7865893.51 68.59 
475373.80 7865904.62 72.91 
475373.22 7865905.95 68.41 
475369.10 7865895.48 68.53 
475373.74 7865897.28 73.62 
475371.85 7865893.68 68.51 
475367.23 7865897.28 68.52 
475367.79 7865894.40 68.55 
475375.14 7865894.54 73.09 
475367.84 7865894.17 68.56 
475369.28 7865893.54 68.53 
475372.39 7865903.93 72.67 
475369.01 7865897.77 68.52 
475374.20 7865898.62 73.79 
475373.86 7865895.37 73.22 
475370.80 7865895.68 68.46 
475371.75 7865898.64 68.51 
475368.51 7865894.44 68.54 
475372.13 7865905.70 68.43 
475373.44 7865890.97 68.53 
475372.24 7865905.19 68.42 
475369.73 7865894.51 68.51 
475375.26 7865895.02 73.14 
475369.64 7865906.29 68.43 
475368.39 7865898.10 68.51 
475367.48 7865905.15 68.41 
475372.46 7865892.66 68.54 
475368.96 7865906.30 68.42 
475374.63 7865902.41 73.78 
475371.17 7865906.39 68.43 
475368.28 7865901.95 68.49 
475366.88 7865893.12 68.61 
475375.66 7865891.63 73.35 
475368.49 7865898.59 68.51 
475374.81 7865899.61 73.99 
475371.35 7865892.80 68.52 
475371.94 7865894.28 68.49 
475369.25 7865892.70 68.55 
475374.06 7865905.85 68.44 
475368.68 7865897.63 68.49 
475367.31 7865902.57 68.44 
475372.32 7865901.13 72.80 
475374.85 7865894.93 73.09 
475369.47 7865893.56 68.53 
475373.28 7865904.23 73.09 
475372.61 7865900.98 72.95 
475368.08 7865894.08 68.56 
475366.60 7865893.02 68.60 
475373.55 7865892.83 68.54 
475371.77 7865892.99 68.55 
475372.04 7865896.82 72.89 
475368.87 7865898.44 68.53 
475373.29 7865899.45 73.30 
475370.93 7865900.59 68.49 
475375.94 7865903.81 73.15 
475367.40 7865902.09 68.47 
475374.72 7865893.09 72.94 
475370.93 7865891.58 68.55 
475371.01 7865904.73 68.41 
475370.67 7865891.75 68.55 
475366.43 7865895.99 68.54 
475368.36 7865895.93 68.51 
475373.35 7865897.34 73.45 
475371.39 7865898.19 68.51 
475371.97 7865901.84 72.64 
475369.67 7865892.76 68.57 
475371.16 7865897.92 74.00 
475372.77 7865898.75 73.11 
475374.10 7865903.46 73.45 
475369.43 7865893.79 68.53 
475369.56 7865897.51 68.50 
475376.01 7865896.77 73.94 
475374.03 7865891.19 72.76 
475366.45 7865905.77 68.42 
475369.93 7865895.24 68.54 
475372.69 7865891.48 68.45 
475371.46 7865894.34 72.66 
475368.79 7865906.01 68.41 
475373.83 7865891.11 72.63 
475367.37 7865904.37 68.40 
475375.50 7865896.30 73.72 
475366.91 7865891.15 68.62 
475370.12 7865903.66 68.43 
475370.56 7865892.22 68.57 
475372.14 7865902.29 68.46 
475367.68 7865896.64 68.55 
475372.29 7865904.68 72.65 
475369.73 7865898.17 68.53 
475374.94 7865898.95 74.08 
475371.19 7865894.50 72.63 
475374.56 7865898.99 73.91 
475368.81 7865903.74 68.42 
475373.59 7865896.77 73.56 
475373.10 7865893.90 68.53 
475366.56 7865906.42 68.42 
475372.31 7865905.92 68.42 
475366.77 7865904.09 68.41 
475367.79 7865899.76 68.52 
475366.72 7865895.66 68.56 
475372.10 7865898.78 72.81 
475373.50 7865904.24 73.12 
475371.80 7865891.65 68.49 
475374.29 7865894.26 72.78 
475375.30 7865892.58 73.20 
475369.45 7865906.05 68.42 
475368.84 7865894.71 68.54 
475367.17 7865903.28 68.43 
475373.13 7865902.60 73.06 
475374.09 7865901.30 73.57 
475369.36 7865906.53 68.41 
475371.45 7865905.90 68.42 
475373.23 7865898.67 73.32 
475373.36 7865900.17 73.27 
475367.72 7865904.84 68.40 
475371.36 7865895.15 68.53 
475367.15 7865899.91 68.52 
475373.91 7865904.44 73.00 
475368.53 7865902.79 68.47 
475372.29 7865900.17 72.82 
475373.14 7865891.62 68.55 
475373.42 7865896.98 73.48 
475371.73 7865904.45 68.44 
475369.49 7865902.40 68.45 
475367.29 7865899.20 68.52 
475375.11 7865905.39 68.45 
475366.92 7865901.12 68.48 
475370.55 7865893.49 68.51 
475368.24 7865893.96 68.56 
475372.34 7865902.11 72.74 
475367.26 7865898.65 68.53 
475366.48 7865891.39 68.61 
475374.37 7865892.79 72.82 
475373.61 7865891.27 68.55 
475370.40 7865893.19 68.53 
475368.75 7865906.25 68.42 
475374.73 7865900.14 73.89 
475370.04 7865905.16 68.42 
475375.31 7865894.78 73.12 
475372.21 7865892.84 68.53 
475369.94 7865899.01 68.51 
475374.38 7865894.29 72.81 
475371.69 7865903.67 69.92 
475375.21 7865891.73 73.21 
475369.31 7865896.67 68.52 
475367.76 7865903.80 68.43 
475375.48 7865898.34 74.32 
475372.49 7865906.21 68.40 
475374.07 7865893.13 72.64 
475367.77 7865905.67 68.44 
475368.18 7865901.79 68.51 
475369.70 7865905.82 68.42 
475370.53 7865903.85 68.44 
475375.26 7865899.53 74.17 
475367.97 7865900.25 68.52 
475372.08 7865895.56 72.95 
475370.38 7865900.20 68.52 
475370.18 7865904.44 68.40 
475368.35 7865891.52 68.58 
475368.50 7865890.96 68.60 
475373.93 7865903.95 73.22 
475373.02 7865900.87 73.12 
475371.12 7865896.36 68.52 
475373.41 7865898.94 73.41 
475373.72 7865891.73 72.67 
475372.24 7865898.06 72.90 
475366.70 7865903.31 68.40 
475372.81 7865904.26 72.85 
475367.02 7865905.50 68.43 
475372.93 7865894.52 72.80 
475367.93 7865899.08 68.53 
475373.86 7865897.57 73.63 
475370.29 7865891.63 68.57 
475367.10 7865893.64 68.58 
475371.10 7865904.17 69.71 
475375.79 7865900.29 74.36 
475369.41 7865903.59 68.46 
475373.66 7865904.54 72.95 
475366.97 7865900.87 68.51 
475369.85 7865897.11 68.50 
475372.33 7865898.38 72.94 
475374.40 7865894.76 72.97 
475373.10 7865905.21 72.66 
475370.07 7865894.57 68.53 
475374.98 7865894.96 73.10 
475366.95 7865905.84 68.43 
475375.05 7865895.01 73.11 
475373.40 7865902.49 73.20 
475369.82 7865895.10 68.52 
475375.72 7865896.01 73.57 
475367.76 7865896.28 68.55 
475371.54 7865894.65 72.79 
475375.20 7865892.06 73.20 
475368.53 7865905.18 68.41 
475373.83 7865901.38 73.44 
475370.25 7865893.92 68.52 
475371.37 7865897.92 68.52 
475373.90 7865899.87 73.55 
475370.85 7865898.83 68.51 
475375.71 7865902.99 73.50 
475372.19 7865891.89 68.49 
475375.42 7865895.31 73.28 
475368.17 7865900.28 68.49 
475371.26 7865902.28 69.88 
475374.23 7865899.24 73.74 
475375.32 7865901.62 74.12 
475369.72 7865896.24 68.55 
475373.18 7865891.21 68.49 
475375.17 7865900.00 74.11 
475373.52 7865895.94 73.43 
475375.25 7865903.38 73.36 
475372.34 7865893.23 68.53 
475371.94 7865898.49 72.75 
475368.73 7865898.43 68.53 
475374.74 7865899.95 73.94 
475368.69 7865903.18 68.46 
475372.55 7865892.18 68.54 
475374.66 7865903.88 73.20 
475368.70 7865892.00 68.56 
475368.44 7865894.41 68.54 
475371.87 7865895.42 72.88 
475367.99 7865894.56 68.54 
475367.21 7865893.30 68.62 
475368.46 7865900.46 68.52 
475371.29 7865903.21 69.78 
475374.09 7865891.90 72.74 
475369.51 7865897.25 68.51 
475368.35 7865906.15 68.41 
475368.91 7865896.44 68.54 
475372.40 7865902.00 72.80 
475372.06 7865899.71 72.74 
475372.73 7865903.50 72.85 
475366.81 7865893.47 68.60 
475374.88 7865899.29 74.04 
475367.87 7865899.68 68.51 
475368.34 7865894.90 68.54 
475369.99 7865905.41 68.43 
475374.96 7865899.99 74.02 
475369.34 7865894.27 68.54 
475371.33 7865897.40 68.53 
475370.92 7865893.98 68.50 
475374.97 7865902.20 73.93 
475374.50 7865903.57 73.33 
475366.63 7865901.51 68.46 
475370.81 7865900.60 68.51 
475370.29 7865892.70 68.54 
475367.47 7865904.93 68.39 
475373.68 7865903.30 73.28 
475375.25 7865893.63 73.19 
475368.72 7865892.98 68.55 
475374.80 7865905.84 68.43 
475375.37 7865904.96 72.62 
475373.78 7865906.48 68.39 
475368.11 7865891.71 68.58 
475374.49 7865899.00 73.86 
475373.76 7865893.88 68.53 
475370.20 7865902.20 68.47 
475369.86 7865906.12 68.42 
475370.06 7865893.89 68.53 
475375.51 7865904.22 72.99 
475370.74 7865901.55 68.48 
475370.21 7865896.53 68.52 
475371.33 7865904.28 69.80 
475369.28 7865906.06 68.44 
475372.54 7865899.93 72.95 
475366.74 7865893.79 68.61 
475375.78 7865904.14 73.03 
475369.66 7865898.07 68.52 
475375.69 7865898.41 74.42 
475370.10 7865900.23 68.52 
475369.34 7865899.73 68.51 
475374.40 7865901.61 73.69 
475367.58 7865905.56 68.41 
475371.89 7865896.50 72.83 
475371.66 7865897.64 73.96 
475368.80 7865899.31 68.52 
475371.43 7865903.09 69.89 
475372.67 7865896.74 73.15 
475374.99 7865896.42 73.73 
475367.42 7865896.32 68.55 
475368.58 7865893.70 68.55 
475373.87 7865906.00 68.41 
475368.02 7865893.30 68.61 
475366.67 7865905.12 68.40 
475368.60 7865894.72 68.53 
475375.41 7865893.12 73.25 
475369.22 7865906.20 68.43 
475375.08 7865895.95 73.53 
475367.73 7865901.47 68.49 
475373.94 7865898.32 73.65 
475375.77 7865895.76 73.48 
475375.92 7865900.79 74.42 
475368.23 7865896.63 68.54 
475371.63 7865898.95 72.69 
475375.05 7865899.52 74.08 
475368.28 7865894.15 68.55 
475368.88 7865893.28 68.56 
475374.51 7865893.09 72.87 
475370.54 7865894.84 68.51 
475370.08 7865896.47 68.54 
475369.89 7865904.86 68.40 
475367.69 7865898.25 68.53 
475371.33 7865900.81 68.49 
475368.27 7865905.19 68.42 
475372.31 7865894.38 72.69 
475366.49 7865904.17 68.44 
475371.73 7865896.14 72.79 
475374.60 7865891.35 73.00 
475370.45 7865901.97 68.45 
475371.94 7865904.75 68.45 
475371.31 7865902.01 68.47 
475373.31 7865891.68 68.53 
475373.69 7865892.12 68.53 
475374.66 7865895.87 73.48 
475372.79 7865903.72 72.89 
475369.25 7865900.49 68.52 
475369.77 7865900.96 68.51 
475368.73 7865902.87 68.45 
475368.70 7865906.49 68.41 
475373.27 7865896.13 73.49 
475367.39 7865896.32 68.69 
475372.42 7865892.88 68.54 
475367.83 7865893.14 68.60 
475371.82 7865906.32 68.41 
475375.71 7865892.65 73.39 
475372.60 7865897.47 73.09 
475370.62 7865905.62 68.41 
475368.30 7865895.45 68.55 
475370.96 7865906.29 68.41 
475370.90 7865901.93 68.45 
475368.95 7865895.22 68.54 
475370.80 7865896.88 68.53 
475373.31 7865901.65 73.19 
475367.56 7865891.63 68.62 
475372.31 7865892.36 68.54 
475372.32 7865893.39 68.51 
475369.05 7865905.82 68.43 
475369.11 7865896.51 68.53 
475366.56 7865892.82 68.62 
475369.79 7865895.91 68.52 
475371.67 7865902.14 68.48 
475369.06 7865896.76 68.53 
475368.44 7865903.28 68.44 
475375.89 7865891.71 73.39 
475374.17 7865894.05 68.52 
475375.50 7865897.16 74.08 
475372.58 7865894.32 68.60 
475368.02 7865896.80 68.55 
475366.80 7865906.28 68.42 
475368.06 7865896.33 68.54 
475368.70 7865900.86 68.51 
475367.14 7865905.57 68.42 
475371.56 7865906.43 68.41 
475375.54 7865894.35 73.25 
475367.83 7865903.45 68.44 
475372.73 7865901.29 72.96 
475368.48 7865897.63 68.48 
475368.45 7865898.85 68.51 
475375.11 7865901.48 74.01 
475372.52 7865899.29 73.01 
475372.16 7865903.06 72.67 
475375.91 7865895.07 73.36 
475375.92 7865892.70 73.47 
475374.08 7865906.02 68.42 
475369.78 7865895.33 68.53 
475375.78 7865893.42 73.38 
475371.55 7865904.34 69.87 
475368.82 7865904.78 68.40 
475374.82 7865899.66 73.94 
475374.89 7865905.36 68.45 
475375.12 7865894.29 73.11 
475368.89 7865902.20 68.49 
475374.90 7865893.37 73.02 
475371.72 7865897.93 72.74 
475375.58 7865899.66 74.32 
475369.95 7865896.62 68.53 
475373.76 7865899.27 73.52 
475373.68 7865905.92 68.42 
475370.13 7865891.24 68.56 
475368.23 7865894.40 68.53 
475375.94 7865896.12 73.66 
475374.31 7865895.22 73.17 
475371.94 7865900.79 68.51 
475369.11 7865892.09 68.54 
475366.42 7865898.32 68.51 
475373.51 7865898.27 73.48 
475367.31 7865903.62 68.42 
475371.71 7865894.34 68.51 
475369.94 7865899.25 68.53 
475366.43 7865891.40 68.63 
475374.26 7865896.66 73.80 
475368.13 7865897.11 68.53 
475372.92 7865906.43 68.41 
475367.72 7865900.07 68.52 
475371.77 7865899.96 68.51 
475374.95 7865905.48 68.45 
475368.06 7865906.22 68.44 
475367.28 7865892.97 68.61 
475371.45 7865892.32 68.53 
475367.11 7865895.77 68.54 
475375.88 7865892.66 73.47 
475367.48 7865897.62 68.54 
475374.97 7865906.10 68.43 
475373.58 7865900.22 73.38 
475370.38 7865898.89 68.52 
475371.86 7865897.77 72.82 
475370.63 7865897.64 68.53 
475367.88 7865900.73 68.52 
475368.53 7865901.94 68.50 
475368.95 7865899.93 68.50 
475369.87 7865897.50 68.51 
475367.22 7865904.10 68.42 
475375.94 7865904.48 72.87 
475375.54 7865892.41 73.33 
475370.75 7865895.91 68.52 
475370.49 7865905.14 68.42 
475374.93 7865905.04 72.63 
475374.78 7865903.66 73.28 
475366.73 7865901.04 68.47 
475371.64 7865904.93 68.41 
475371.98 7865902.05 68.47 
475366.98 7865897.46 68.52 
475374.45 7865894.51 72.88 
475368.48 7865894.18 68.52 
475372.48 7865894.29 72.72 
475366.47 7865906.11 68.44 
475373.77 7865895.34 73.25 
475368.74 7865899.11 68.53 
475374.36 7865904.31 73.01 
475368.63 7865893.45 68.55 
475372.88 7865894.75 72.90 
475368.87 7865890.93 68.59 
475368.81 7865895.93 68.50 
475369.89 7865898.20 68.53 
475372.92 7865904.94 72.82 
475369.91 7865902.60 68.45 
475375.24 7865902.10 73.96 
475374.17 7865904.77 72.81 
475371.92 7865893.32 68.53 
475371.02 7865891.10 68.56 
475367.41 7865899.69 68.50 
475366.74 7865896.66 68.53 
475372.65 7865902.77 72.85 
475370.26 7865902.93 68.43 
475371.54 7865905.42 68.43 
475372.93 7865892.60 68.55 
475368.40 7865891.30 68.57 
475367.06 7865899.64 68.54 
475368.94 7865899.65 68.51 
475371.18 7865900.48 68.51 
475374.73 7865896.65 73.82 
475371.24 7865903.43 69.83 
475371.16 7865899.38 68.51 
475367.54 7865893.54 68.61 
475371.36 7865896.20 68.52 
475367.56 7865904.45 68.40 
475368.45 7865892.93 68.58 
475367.09 7865898.00 68.53 
475372.98 7865893.37 68.52 
475372.02 7865900.44 68.50 
475369.90 7865905.88 68.43 
475372.49 7865891.40 68.47 
475366.83 7865897.21 68.53 
475374.55 7865902.14 73.73 
475374.27 7865895.45 73.26 
475372.46 7865903.61 72.71 
475370.07 7865903.89 68.44 
475374.74 7865891.90 73.02 
475375.19 7865902.33 73.83 
475371.24 7865905.90 68.41 
475372.37 7865903.20 72.68 
475373.67 7865905.29 72.65 
475371.58 7865895.85 72.72 
475370.81 7865898.68 68.54 
475375.99 7865893.54 73.45 
475367.20 7865898.63 68.52 
475375.65 7865898.64 74.39 
475372.24 7865891.63 68.44 
475368.11 7865898.47 68.50 
475368.56 7865896.05 68.51 
475369.20 7865896.04 68.50 
475373.81 7865896.95 73.65 
475375.81 7865895.55 73.39 
475369.45 7865897.02 68.51 
475374.38 7865891.47 72.87 
475374.49 7865895.50 73.31 
475371.44 7865897.94 68.51 
475371.55 7865903.10 69.90 
475371.43 7865902.48 69.82 
475372.09 7865897.91 72.86 
475368.41 7865904.52 68.42 
475371.40 7865895.95 68.54 
475373.65 7865902.33 73.31 
475371.22 7865902.50 68.50 
475374.20 7865901.67 73.60 
475371.14 7865901.77 68.47 
475369.56 7865899.89 68.51 
475374.47 7865901.28 73.73 
475368.45 7865899.88 68.51 
475374.64 7865897.11 74.02 
475366.66 7865895.98 68.55 
475374.99 7865900.95 73.98 
475369.65 7865894.73 68.53 
475373.41 7865893.73 68.56 
475374.02 7865902.62 73.46 
475368.76 7865901.60 68.51 
475366.90 7865898.67 68.54 
475373.00 7865900.94 73.10 
475370.58 7865894.61 68.51 
475368.85 7865906.27 68.43 
475368.63 7865897.89 68.51 
475372.48 7865893.76 68.51 
475369.09 7865899.91 68.49 
475373.70 7865895.65 73.35 
475375.09 7865894.79 73.04 
475372.87 7865905.71 68.44 
475376.00 7865898.07 74.53 
475375.26 7865891.75 73.25 
475370.77 7865891.27 68.56 
475374.54 7865894.04 72.83 
475375.06 7865890.97 73.06 
475374.33 7865906.44 68.43 
475375.22 7865897.54 74.25 
475375.39 7865904.64 72.79 
475373.02 7865896.37 73.33 
475371.43 7865893.84 68.51 
475369.94 7865891.17 68.58 
475368.66 7865901.09 68.50 
475367.46 7865896.08 68.53 
475369.87 7865894.85 68.53 
475367.95 7865904.71 68.41 
475370.87 7865904.31 68.44 
475372.51 7865897.95 73.03 
475375.85 7865896.47 73.80 
475374.10 7865893.20 68.51 
475371.33 7865895.67 72.64 
475371.38 7865897.16 68.49 
475374.86 7865891.96 73.08 
475374.04 7865906.25 68.42 
475369.48 7865903.23 68.46 
475370.68 7865894.13 68.49 
475369.87 7865893.79 68.53 
475375.04 7865896.65 73.86 
475375.85 7865900.36 74.42 
475375.13 7865906.43 68.43 
475371.36 7865901.76 68.47 
475366.62 7865900.41 68.49 
475371.28 7865901.04 68.51 
475369.70 7865904.05 68.45 
475369.61 7865899.64 68.52 
475367.64 7865901.95 68.47 
475368.51 7865891.91 68.57 
475370.34 7865904.82 68.42 
475368.05 7865904.29 68.43 
475373.24 7865893.19 68.53 
475370.71 7865903.32 68.48 
475370.29 7865905.35 68.44 
475372.61 7865900.68 72.95 
475375.18 7865894.31 73.12 
475370.29 7865898.31 68.52 
475375.36 7865893.36 73.22 
475373.94 7865899.64 73.59 
475375.89 7865899.81 74.43 
475367.65 7865900.42 68.52 
475374.36 7865899.72 73.76 
475374.50 7865894.29 72.79 
475373.11 7865895.89 73.41 
475370.20 7865892.05 68.57 
475368.89 7865905.53 68.43 
475375.97 7865901.65 74.09 
475369.23 7865896.75 68.55 
475372.86 7865903.37 72.94 
475374.94 7865894.47 72.98 
475375.55 7865900.43 74.26 
475371.86 7865903.65 69.98 
475370.66 7865898.75 68.50 
475373.11 7865900.39 73.17 
475368.97 7865896.11 68.54 
475373.43 7865894.27 72.71 
475372.38 7865897.35 72.99 
475369.76 7865897.58 68.49 
475369.55 7865891.05 68.57 
475375.19 7865903.70 73.22 
475372.67 7865904.98 72.77 
475371.19 7865901.53 68.48 
475368.91 7865892.02 68.57 
475370.66 7865899.79 68.52 
475371.69 7865897.83 68.54 
475366.69 7865899.67 68.54 
475370.97 7865900.34 68.50 
475366.89 7865904.09 68.43 
475367.62 7865896.48 68.56 
475372.69 7865901.52 72.93 
475368.76 7865896.18 68.52 
475369.00 7865892.10 68.57 
475368.67 7865895.59 68.53 
475369.24 7865902.62 68.45 
475371.41 7865895.31 72.65 
475373.18 7865906.20 68.40 
475370.76 7865902.57 69.71 
475367.70 7865903.73 68.40 
475375.79 7865901.50 74.20 
475373.42 7865904.64 72.90 
475375.45 7865896.37 73.73 
475371.82 7865903.89 69.91 
475367.98 7865902.28 68.46 
475373.16 7865906.43 68.43 
475367.84 7865901.95 68.49 
475368.25 7865898.81 68.51 
475368.32 7865893.92 68.55 
475372.74 7865895.46 73.21 
475368.93 7865905.91 68.42 
475374.85 7865905.60 68.43 
475371.96 7865898.57 72.75 
475370.68 7865900.78 68.50 
475367.42 7865905.46 68.43 
475376.04 7865894.35 73.46 
475373.35 7865891.45 68.54 
475375.26 7865892.80 73.17 
475370.40 7865905.63 68.41 
475371.22 7865904.12 69.77 
475372.16 7865903.20 70.14 
475369.53 7865893.44 68.54 
475371.70 7865905.70 68.41 
475375.45 7865897.41 74.19 
475368.87 7865896.67 68.53 
475374.13 7865896.16 73.56 
475373.77 7865905.43 68.44 
475370.91 7865892.92 68.53 
475368.54 7865903.84 68.41 
475367.77 7865891.39 68.60 
475368.55 7865905.96 68.43 
475369.73 7865895.58 68.51 
475369.42 7865900.60 68.51 
475369.82 7865900.71 68.51 
475371.90 7865896.94 73.90 
475369.12 7865904.33 68.41 
475372.26 7865896.82 72.97 
475375.86 7865895.30 73.32 
475376.03 7865893.32 73.47 
475367.71 7865899.28 68.50 
475370.78 7865892.31 68.53 
475374.12 7865897.37 73.77 
475373.83 7865891.39 68.56 
475375.12 7865904.05 73.08 
475375.02 7865905.87 68.44 
475373.67 7865901.06 73.39 
475367.01 7865899.59 68.52 
475367.67 7865892.89 68.60 
475366.56 7865899.64 68.52 
475373.61 7865903.65 73.26 
475368.11 7865899.55 68.52 
475374.36 7865899.97 73.76 
475371.75 7865900.88 68.47 
475367.88 7865893.92 68.57 
475372.27 7865893.62 68.50 
475366.43 7865893.48 68.60 
475371.50 7865897.27 73.96 
475368.00 7865904.46 68.40 
475367.55 7865898.98 68.51 
475367.28 7865905.89 68.43 
475369.60 7865897.28 68.48 
475373.48 7865905.77 68.43 
475369.73 7865901.19 68.50 
475374.35 7865897.50 73.87 
475373.63 7865896.54 73.60 
475367.80 7865895.52 68.52 
475372.06 7865892.65 68.54 
475374.59 7865903.09 73.55 
475373.93 7865899.95 73.58 
475370.03 7865898.53 68.52 
475371.57 7865902.42 69.97 
475374.67 7865900.28 73.90 
475367.99 7865906.53 68.42 
475372.11 7865901.12 72.66 
475369.82 7865904.12 68.42 
475369.46 7865897.99 68.52 
475374.47 7865893.32 72.84 
475367.95 7865894.79 68.54 
475369.37 7865892.00 68.55 
475375.44 7865894.07 73.21 
475374.28 7865893.26 72.76 
475371.36 7865906.38 68.41 
475374.72 7865894.41 72.92 
475368.19 7865902.43 68.48 
475369.91 7865900.23 68.52 
475366.76 7865899.69 68.52 
475370.87 7865896.53 68.54 
475372.39 7865899.95 72.90 
475372.48 7865895.64 73.13 
475370.42 7865892.89 68.55 
475367.59 7865892.34 68.59 
475372.38 7865904.21 72.63 
475372.80 7865906.05 68.42 
475371.88 7865899.96 72.66 
475373.78 7865896.84 73.63 
475375.58 7865893.36 73.30 
475371.51 7865896.45 68.51 
475369.75 7865898.93 68.52 
475370.14 7865899.03 68.51 
475371.59 7865898.59 72.66 
475372.68 7865899.22 73.04 
475371.97 7865900.99 68.50 
475375.87 7865906.23 68.43 
475367.94 7865902.53 68.46 
475372.36 7865905.67 68.43 
475370.36 7865896.85 68.53 
475374.09 7865894.21 72.70 
475373.77 7865902.80 73.34 
475370.75 7865898.28 68.51 
475373.50 7865893.08 68.54 
475373.68 7865897.61 73.58 
475366.52 7865895.51 68.55 
475373.41 7865897.72 73.45 
475370.73 7865897.20 68.51 
475368.81 7865894.88 68.52 
475375.18 7865898.81 74.17 
475374.81 7865892.62 73.01 
475367.48 7865898.24 68.51 
475368.34 7865897.28 68.52 
475373.68 7865894.04 72.69 
475367.63 7865892.09 68.59 
475372.11 7865903.45 70.11 
475370.10 7865899.27 68.51 
475373.15 7865904.96 72.81 
475376.00 7865902.94 73.54 
475373.27 7865905.71 68.41 
475372.99 7865891.11 68.47 
475374.15 7865897.06 73.82 
475371.23 7865900.24 68.51 
475373.04 7865901.84 73.07 
475374.69 7865892.14 72.99 
475370.99 7865903.61 69.76 
475371.13 7865893.54 68.52 
475366.95 7865898.72 68.53 
475374.68 7865902.60 73.77 
475369.03 7865901.52 68.51 
475369.96 7865902.35 68.46 
475374.29 7865896.40 73.71 
475368.09 7865903.98 68.40 
475375.46 7865904.48 72.89 
475371.57 7865901.84 68.47 
475371.79 7865905.22 68.40 
475369.47 7865900.37 68.51 
475371.42 7865903.81 69.80 
475374.45 7865899.24 73.83 
475375.59 7865892.17 73.35 
475367.95 7865897.12 68.54 
475374.19 7865905.17 68.49 
475368.91 7865903.25 68.44 
475371.77 7865904.14 69.91 
475369.94 7865891.42 68.58 
475370.83 7865905.69 68.44 
475369.96 7865893.31 68.54 
475375.54 7865896.94 73.98 
475369.50 7865905.82 68.42 
475372.94 7865899.33 73.18 
475367.39 7865894.33 68.57 
475372.52 7865901.15 72.88 
475367.77 7865904.60 68.39 
475366.77 7865895.33 68.54 
475373.87 7865904.28 73.08 
475375.20 7865901.00 74.07 
475375.76 7865905.24 68.47 
475374.37 7865903.09 73.58 
475371.01 7865899.08 68.51 
475374.50 7865892.07 72.91 
475370.25 7865905.30 68.44 
475370.10 7865902.68 68.46 
475367.30 7865902.08 68.49 
475369.89 7865901.48 68.49 
475374.88 7865905.80 68.46 
475372.35 7865894.15 72.69 
475368.20 7865899.80 68.52 
475373.74 7865892.93 68.52 
475367.22 7865896.27 68.54 
475371.05 7865892.21 68.54 
475372.05 7865894.48 72.74 
475368.26 7865899.81 68.51 
475372.80 7865896.07 73.25 
475373.47 7865893.42 68.55 
475369.48 7865894.59 68.50 
475371.68 7865904.70 68.43 
475370.82 7865896.68 68.52 
475366.58 7865896.29 68.54 
475371.74 7865901.78 68.48 
475367.16 7865904.83 68.42 
475371.77 7865898.25 72.67 
475374.83 7865895.62 73.38 
475373.35 7865902.72 73.18 
475371.12 7865902.91 69.75 
475368.97 7865903.94 68.45 
475374.24 7865894.96 73.09 
475366.71 7865901.33 68.50 
475370.21 7865893.90 68.53 
475373.90 7865897.32 73.66 
475370.40 7865902.61 68.47 
475375.62 7865897.64 74.32 
475375.79 7865894.96 73.35 
475369.01 7865903.82 68.43 
475370.21 7865899.81 68.51 
475367.49 7865906.04 68.41 
475369.64 7865894.98 68.53 
475375.28 7865905.70 68.44 
475372.95 7865904.88 72.87 
475371.53 7865896.08 72.63 
475374.03 7865897.85 73.71 
475367.04 7865901.49 68.52 
475371.60 7865902.45 68.46 
475372.37 7865904.32 70.15 
475371.95 7865903.17 70.04 
475375.92 7865898.00 74.51 
475371.28 7865897.64 68.52 
475370.36 7865895.13 68.54 
475368.24 7865891.00 68.59 
475367.40 7865894.22 68.58 
475366.75 7865906.51 68.41 
475371.48 7865897.71 68.52 
475375.23 7865905.92 68.44 
475370.47 7865902.27 68.48 
475369.22 7865898.21 68.54 
475370.12 7865900.29 68.50 
475370.96 7865895.97 68.52 
475373.21 7865892.17 68.55 
475368.37 7865893.68 68.56 
475369.35 7865903.11 68.44 
475368.61 7865901.34 68.51 
475375.73 7865891.31 73.22 
475368.84 7865891.28 68.56 
475373.64 7865893.96 72.66 
475371.55 7865896.54 72.70 
475374.63 7865898.64 73.95 
475369.63 7865901.68 68.48 
475374.63 7865894.79 73.01 
475372.54 7865901.33 72.89 
475374.79 7865892.30 73.01 
475374.04 7865901.38 73.53 
475367.45 7865901.84 68.49 
475369.81 7865897.33 68.46 
475372.40 7865891.88 68.50 
475374.85 7865897.11 74.03 
475370.53 7865906.00 68.43 
475375.04 7865898.48 74.11 
475370.15 7865896.16 68.54 
475373.13 7865896.85 73.37 
475372.41 7865891.00 68.49 
475371.68 7865898.72 72.66 
475367.66 7865899.51 68.50 
475375.48 7865891.63 73.34 
475370.59 7865897.87 68.54 
475370.52 7865891.49 68.58 
475374.50 7865897.81 73.92 
475367.08 7865903.76 68.42 
475372.33 7865906.50 68.42 
475370.56 7865896.87 68.52 
475366.91 7865900.07 68.53 
475370.08 7865906.37 68.42 
475371.10 7865895.24 68.51 
475374.70 7865905.01 72.66 
475367.23 7865905.09 68.41 
475367.63 7865905.32 68.41 
475371.71 7865892.50 68.56 
475366.49 7865892.41 68.60 
475368.17 7865894.28 68.56 
475369.57 7865898.54 68.52 
475367.22 7865903.05 68.42 
475370.05 7865904.29 68.44 
475368.35 7865897.07 68.54 
475373.81 7865898.71 73.61 
475370.89 7865897.54 68.51 
475368.83 7865893.52 68.56 
475371.52 7865904.38 69.85 
475370.34 7865891.39 68.56 
475372.41 7865900.65 72.85 
475367.42 7865905.17 68.39 
475375.85 7865894.27 73.36 
475366.70 7865905.69 68.42 
475367.80 7865903.24 68.43 
475375.67 7865892.89 73.35 
475369.32 7865894.43 68.53 
475375.79 7865905.47 68.44 
475372.26 7865892.61 68.54 
475367.01 7865894.12 68.57 
475371.43 7865901.63 68.49 
475368.82 7865897.96 68.52 
475371.34 7865891.81 68.54 
475367.17 7865891.19 68.60 
475368.99 7865893.92 68.54 
475372.13 7865892.34 68.56 
475366.42 7865898.91 68.54 
475366.80 7865905.21 68.39 
475371.91 7865895.19 72.92 
475369.17 7865898.46 68.52 
475373.61 7865892.75 68.55 
475368.11 7865904.97 68.41 
475371.60 7865902.84 69.90 
475372.96 7865900.10 73.13 
475375.19 7865896.47 73.76 
475370.38 7865892.22 68.55 
475373.88 7865893.30 68.54 
475375.21 7865893.04 73.15 
475375.98 7865891.24 73.19 
475373.22 7865903.45 73.08 
475370.46 7865906.33 68.43 
475374.58 7865898.53 73.92 
475374.65 7865905.49 68.45 
475375.69 7865903.25 73.41 
475369.54 7865905.57 68.39 
475371.85 7865900.39 68.48 
475371.65 7865894.41 72.66 
475371.91 7865901.05 72.66 
475369.84 7865905.10 68.41 
475367.71 7865896.00 68.55 
475368.83 7865902.50 68.48 
475366.56 7865898.24 68.54 
475367.51 7865901.10 68.52 
475371.47 7865899.66 68.51 
475369.29 7865895.55 68.50 
475371.29 7865894.51 68.52 
475369.85 7865899.49 68.52 
475367.36 7865899.94 68.52 
475372.77 7865903.28 72.88 
475366.77 7865900.80 68.49 
475369.40 7865906.30 68.41 
475366.51 7865891.04 68.63 
475373.74 7865891.59 72.70 
475371.89 7865898.91 72.70 
475369.27 7865892.49 68.55 
475369.71 7865892.35 68.55 
475369.53 7865901.26 68.51 
475366.83 7865899.00 68.55 
475372.26 7865894.61 72.81 
475373.15 7865897.83 73.34 
475368.60 7865899.78 68.52 
475374.41 7865904.06 73.13 
475366.43 7865902.67 68.46 
475373.77 7865898.04 73.58 
475375.13 7865892.42 73.15 
475375.49 7865893.83 73.25 
475369.60 7865891.87 68.57 
475369.09 7865891.06 68.58 
475371.64 7865892.85 68.55 
475367.35 7865893.53 68.59 
475369.18 7865895.10 68.54 
475371.51 7865903.32 69.92 
475375.91 7865903.42 73.33 
475366.63 7865896.04 68.56 
475374.59 7865904.66 72.86 
475366.50 7865898.90 68.52 
475369.28 7865901.32 68.51 
475369.21 7865906.42 68.43 
475366.88 7865896.98 68.53 
475372.17 7865897.29 72.92 
475374.69 7865896.29 73.68 
475374.14 7865891.67 72.76 
475373.30 7865892.59 68.55 
475373.91 7865892.85 72.66 
475371.89 7865902.46 70.07 
475368.50 7865899.64 68.52 
475371.12 7865893.99 68.49 
475375.45 7865900.33 74.23 
475370.27 7865897.34 68.47 
475369.54 7865902.15 68.48 
475372.38 7865890.93 68.47 
475375.08 7865900.48 74.04 
475371.79 7865897.61 72.80 
475370.95 7865902.67 69.73 
475371.26 7865896.68 68.52 
475370.97 7865891.35 68.56 
475373.54 7865901.77 73.30 
475367.82 7865891.13 68.61 
475373.34 7865896.88 73.45 
475375.87 7865896.43 73.81 
475373.45 7865900.92 73.30 
475374.34 7865891.70 72.84 
475372.23 7865904.05 70.08 
475373.29 7865897.12 73.43 
475372.97 7865894.28 72.68 
475375.66 7865897.40 74.19 
475366.81 7865906.50 68.44 
475368.04 7865894.94 68.55 
475367.56 7865904.79 68.41 
475369.79 7865896.31 68.54 
475366.51 7865897.84 68.52 
475367.57 7865891.24 68.61 
475367.77 7865892.41 68.58 
475369.12 7865897.63 68.49 
475371.84 7865902.68 69.98 
475371.33 7865894.05 68.50 
475368.55 7865903.85 68.44 
475371.72 7865895.13 72.81 
475367.27 7865891.67 68.60 
475371.60 7865898.32 68.51 
475368.52 7865900.74 68.51 
475372.59 7865898.96 73.07 
475373.59 7865892.60 68.54 
475370.01 7865894.14 68.54 
475367.96 7865891.54 68.60 
475371.23 7865904.85 68.42 
475366.71 7865899.93 68.53 
475370.97 7865905.49 68.43 
475371.73 7865904.37 69.92 
475368.04 7865894.32 68.56 
475373.00 7865895.36 73.15 
475366.90 7865902.16 68.48 
475373.53 7865901.94 73.30 
475371.02 7865900.11 68.51 
475370.98 7865894.72 68.53 
475371.16 7865904.44 69.56 
475370.89 7865900.25 68.52 
475371.15 7865892.77 68.54 
475366.64 7865901.65 68.50 
475375.74 7865893.65 73.36 
475372.27 7865905.03 68.45 
475366.45 7865896.99 68.55 
475368.16 7865895.86 68.52 
475373.89 7865891.91 72.65 
475372.90 7865891.60 68.52 
475370.98 7865901.99 68.49 
475367.67 7865898.47 68.53 
475375.45 7865892.64 73.32 
475372.65 7865895.94 73.17 
475369.46 7865893.76 68.55 
475372.02 7865901.60 72.67 
475375.40 7865894.30 73.20 
475375.63 7865905.91 68.46 
475375.82 7865903.91 73.12 
475373.52 7865905.27 72.66 
475367.95 7865898.07 68.50 
475373.73 7865896.08 73.51 
475370.36 7865905.02 68.45 
475371.57 7865900.96 68.50 
475372.06 7865896.28 72.96 
475371.19 7865898.12 68.51 
475375.00 7865891.29 73.16 
475372.06 7865892.59 68.55 
475371.21 7865902.44 69.69 
475375.75 7865900.53 74.32 
475375.06 7865903.06 73.53 
475374.29 7865901.19 73.67 
475369.54 7865895.47 68.51 
475370.30 7865902.70 68.44 
475374.53 7865896.56 73.76 
475369.51 7865900.12 68.51 
475373.87 7865900.27 73.54 
475375.42 7865904.71 72.79 
475375.71 7865897.17 74.11 
475374.08 7865897.38 73.78 
475373.02 7865898.98 73.23 
475372.05 7865902.69 70.03 
475374.38 7865893.79 72.78 
475375.29 7865900.54 74.12 
475367.12 7865899.32 68.53 
475366.71 7865892.14 68.63 
475372.00 7865902.35 68.47 
475372.73 7865898.29 73.16 
475374.05 7865903.72 73.34 
475370.46 7865903.00 68.43 
475373.10 7865893.58 68.55 
475374.39 7865897.28 73.89 
475372.86 7865894.24 72.68 
475370.43 7865891.98 68.55 
475367.98 7865904.63 68.42 
475368.54 7865906.23 68.43 
475368.62 7865902.31 68.49 
475367.45 7865902.91 68.45 
475370.37 7865894.45 68.51 
475373.82 7865891.72 68.55 
475373.99 7865894.33 72.82 
475369.55 7865902.92 68.46 
475370.57 7865894.14 68.51 
475374.19 7865893.73 72.65 
475373.71 7865904.30 73.05 
475373.09 7865894.75 72.91 
475367.21 7865895.29 68.54 
475375.96 7865897.01 74.04 
475373.07 7865896.62 73.36 
475368.46 7865895.44 68.53 
475375.96 7865903.17 73.44 
475369.04 7865903.58 68.45 
475368.46 7865892.16 68.56 
475372.85 7865905.37 72.65 
475373.25 7865903.28 73.12 
475367.62 7865904.48 68.42 
475371.45 7865905.04 68.45 
475374.88 7865902.68 73.73 
475375.18 7865893.97 73.14 
475370.57 7865900.27 68.52 
475370.07 7865894.88 68.54 
475372.52 7865905.06 72.68 
475366.70 7865903.16 68.44 
475375.74 7865898.16 74.45 
475368.53 7865900.09 68.52 
475369.80 7865898.67 68.51 
475370.89 7865895.20 68.53 
475371.83 7865897.25 73.92 
475370.53 7865892.48 68.55 
475369.76 7865893.16 68.53 
475369.61 7865900.70 68.53 
475369.26 7865905.98 68.42 
475375.96 7865901.80 74.03 
475373.42 7865892.23 68.55 
475370.67 7865903.06 69.64 
475369.19 7865901.81 68.48 
475367.61 7865904.20 68.42 
475368.52 7865892.62 68.58 
475369.46 7865892.58 68.55 
475374.23 7865905.03 72.68 
475370.16 7865894.40 68.50 
475373.05 7865894.15 68.52 
475367.40 7865897.98 68.54 
475371.71 7865901.10 68.49 
475368.27 7865896.40 68.54 
475367.44 7865894.10 68.54 
475373.93 7865903.09 73.40 
475369.85 7865893.74 68.53 
475375.52 7865892.30 73.35 
475368.12 7865901.56 68.49 
475371.75 7865899.56 72.65 
475368.26 7865892.00 68.56 
475371.76 7865899.44 72.64 
475367.81 7865896.56 68.55 
475375.79 7865896.78 73.95 
475369.37 7865898.47 68.52 
475367.03 7865905.07 68.40 
475373.04 7865903.08 73.00 
475369.65 7865891.62 68.57 
475370.41 7865894.23 68.51 
475372.76 7865904.51 72.82 
475375.40 7865895.01 73.18 
475370.92 7865892.45 68.56 
475367.34 7865901.20 68.50 
475371.86 7865906.07 68.41 
475370.66 7865896.39 68.52 
475366.59 7865902.80 68.41 
475369.87 7865903.89 68.45 
475369.98 7865897.72 68.52 
475367.64 7865898.50 68.51 
475375.82 7865902.54 73.72 
475370.25 7865901.37 68.50 
475367.03 7865904.01 68.42 
475367.82 7865895.97 68.55 
475372.39 7865896.11 73.06 
475372.59 7865899.70 72.98 
475371.43 7865904.94 68.41 
475369.68 7865894.75 68.52 
475373.36 7865901.40 73.23 
475368.59 7865898.11 68.52 
475371.76 7865903.33 70.04 
475375.08 7865893.74 73.07 
475368.28 7865897.39 68.53 
475366.51 7865894.55 68.55 
475370.60 7865902.27 68.47 
475373.08 7865904.15 72.99 
475371.54 7865894.19 68.50 
475376.01 7865892.01 73.54 
475371.61 7865892.61 68.57 
475369.00 7865900.39 68.51 
475373.57 7865905.02 72.73 
475372.77 7865893.36 68.52 
475370.88 7865900.83 68.51 
475372.18 7865901.84 72.64 
475373.51 7865891.75 68.54 
475375.23 7865894.06 73.15 
475375.72 7865891.47 73.30 
475372.48 7865899.22 72.95 
475371.28 7865904.62 68.42 
475374.99 7865892.90 73.06 
475371.61 7865899.37 68.50 
475372.27 7865906.16 68.39 
475368.26 7865900.84 68.49 
475372.88 7865899.64 73.12 
475373.02 7865898.55 73.24 
475372.19 7865900.95 72.75 
475367.92 7865905.93 68.43 
475366.85 7865899.20 68.53 
475368.84 7865899.07 68.52 
475374.11 7865891.65 72.79 
475371.72 7865898.49 72.65 
475372.75 7865899.97 73.05 
475374.95 7865901.18 73.95 
475369.38 7865894.05 68.54 
475373.75 7865904.05 73.18 
475375.38 7865900.06 74.19 
