475391.24 7865901.68 68.49
475392.58 7865898.96 68.5
475392.77 7865892.2 68.61
475393.49 7865896.62 68.56
475392.95 7865899.75 68.5
475393.18 7865902.63 68.46
475393.55 7865899.02 68.52
475391.39 7865892.84 68.61
475391.9 7865894.43 68.57
475391.99 7865893.95 68.59
475392.93 7865892.67 68.62
475390.81 7865897.82 68.49
475391.39 7865893.1 68.61
475392.42 7865905.9 68.47
475391.48 7865902.43 68.49
475391.47 7865904.07 68.46
475392.18 7865894.2 68.59
475394.09 7865905.99 68.48
475393.08 7865898.92 68.52
475393.64 7865906.24 68.47
475393.83 7865901 68.51
475393.61 7865904.36 68.45
475390.86 7865899.45 68.53
475391.47 7865898.29 68.53
475392.52 7865892.27 68.6
475394.2 7865892.52 68.59
475393.82 7865903.35 68.47
475391.94 7865899.96 68.5
475393.1 7865892.6 68.62
475391.82 7865894.92 68.59
475394.17 7865895.43 68.62
475393.89 7865905.73 68.47
475391.47 7865896.45 68.58
475392.78 7865900.72 68.49
475392.28 7865903.61 68.45
475390.64 7865900.18 68.49
475393.42 7865894.14 68.58
475394.19 7865891.21 68.69
475390.7 7865896.19 68.55
475393.88 7865895.68 68.58
475393.27 7865903.69 68.44
475393.74 7865891.36 68.68
475393.64 7865899.98 68.5
475391.34 7865904.81 68.47
475392.89 7865892.9 68.59
475392.74 7865899.44 68.52
475392.41 7865901.37 68.47
475393.2 7865896.78 68.54
475390.73 7865906.12 68.47
475393.03 7865905.14 68.47
475390.82 7865895.04 68.58
475393.42 7865897.23 68.57
475393.13 7865905.91 68.45
475391.5 7865903.85 68.44
475390.69 7865894.29 68.59
475392.31 7865893.47 68.59
475391.06 7865890.74 68.66
475392.2 7865904.1 68.44
475391.28 7865890.92 68.66
475392.23 7865898.74 68.55
475391.51 7865900.87 68.49
475394.2 7865905.29 68.46
475392.88 7865901.47 68.46
475394.1 7865903 68.45
475393.61 7865895.89 68.57
475392.11 7865891.76 68.61
475393.81 7865906.21 68.47
475392.72 7865903.85 68.44
475391.45 7865904.64 68.47
475393.68 7865899.73 68.5
475392.86 7865894.66 68.59
475390.69 7865895.77 68.54
475390.76 7865896.72 68.54
475392.24 7865892.51 68.61
475392.32 7865901.85 68.48
475392.99 7865893.93 68.57
475392.19 7865891.28 68.64
475391.3 7865905.04 68.47
475394.03 7865900.02 68.53
475391.27 7865903.44 68.47
475392.72 7865905.3 68.45
475390.81 7865890.83 68.66
475390.83 7865893.6 68.61
475393.58 7865904.67 68.44
475392.47 7865903.88 68.45
475392.59 7865903.15 68.45
475391.1 7865904.78 68.46
475393.99 7865898.18 68.55
475393.69 7865895.9 68.6
475391.62 7865905.95 68.44
475391.1 7865892.25 68.63
475393.15 7865904.35 68.45
475393.83 7865903.21 68.44
475390.81 7865893.56 68.6
475391.76 7865899.42 68.49
475391.55 7865900.61 68.49
475392.51 7865897.4 68.56
475390.95 7865896.93 68.56
475392.19 7865892.76 68.61
475392.46 7865901.94 68.49
475393.49 7865891.04 68.68
475391.65 7865897.76 68.55
475391.35 7865903.34 68.45
475393.82 7865904.68 68.44
475394.06 7865903.23 68.45
475390.93 7865898.51 68.51
475393.32 7865892 68.62
475391.97 7865901.18 68.48
475393.79 7865899.19 68.53
475392.36 7865891.79 68.63
475392.4 7865902.9 68.47
475390.75 7865905.21 68.47
475392.48 7865895.64 68.59
475394.18 7865896.84 68.56
475394.04 7865900.61 68.5
475392.53 7865902.17 68.48
475392.37 7865898.07 68.54
475391.65 7865891.65 68.63
475393.51 7865897.84 68.52
475391.11 7865894.19 68.61
475394.03 7865891.96 68.64
475392.54 7865899.19 68.51
475391.05 7865903.51 68.45
475391.15 7865891.63 68.63
475391.1 7865900.44 68.5
475390.97 7865892.92 68.62
475392.26 7865895.09 68.58
475393.7 7865905.93 68.48
475390.72 7865898.3 68.5
475391.01 7865898.02 68.51
475393.67 7865904.18 68.44
475392.89 7865893.63 68.61
475391.79 7865890.83 68.69
475392.67 7865892.74 68.64
475391.43 7865895.61 68.61
475391.98 7865904.29 68.47
475393.9 7865894.89 68.62
475390.93 7865895.76 68.57
475392.26 7865894.75 68.6
475391.9 7865900.19 68.49
475392.85 7865904.56 68.45
475391.17 7865900.12 68.51
475391.13 7865903.03 68.47
475393.55 7865897.61 68.52
475393.24 7865896.54 68.57
475394.1 7865898.86 68.53
475392.14 7865894.44 68.6
475393.21 7865904.04 68.46
475392.94 7865905.62 68.43
475392.29 7865892.42 68.62
475391.26 7865900.88 68.46
475393.78 7865905.56 68.48
475393.33 7865906.11 68.45
475390.97 7865903.99 68.45
475393.39 7865892.99 68.59
475392.45 7865891.32 68.65
475392.18 7865905.57 68.45
475392.44 7865897.74 68.56
475392.1 7865896.05 68.57
475391.77 7865890.94 68.66
475393.94 7865899.83 68.5
475390.77 7865893.81 68.59
475392.07 7865903.3 68.45
475391.35 7865897.57 68.55
475390.85 7865891.27 68.67
475392.24 7865903.87 68.44
475392.38 7865905.78 68.44
475391.23 7865894.06 68.61
475391.78 7865904.98 68.46
475392.6 7865906.01 68.45
475390.89 7865895.98 68.54
475393.46 7865905.39 68.43
475392.16 7865901.38 68.5
475393.63 7865903.01 68.44
475392.69 7865895.62 68.56
475391.17 7865899.98 68.5
475392.16 7865902.81 68.47
475393.38 7865894.37 68.59
475393.15 7865904.42 68.42
475391.37 7865905.96 68.46
475390.9 7865891.7 68.63
475392.76 7865903.59 68.45
475392.52 7865893.65 68.59
475393.98 7865904.58 68.47
475392.82 7865894.89 68.57
475392.34 7865900.25 68.51
475393.01 7865899.25 68.53
475392.85 7865893.16 68.59
475392.54 7865899.27 68.53
475391.17 7865901.36 68.47
475393.01 7865895.16 68.58
475391.93 7865902.26 68.49
475394.02 7865905.01 68.47
475391.68 7865898.46 68.54
475392.07 7865899.22 68.53
475394.05 7865897.58 68.54
475392.19 7865898.51 68.53
475393.64 7865893.89 68.62
475393.21 7865895.34 68.58
475391.22 7865901.11 68.47
475393.52 7865902.24 68.46
475392.42 7865898.54 68.53
475393.13 7865900.02 68.49
475392.42 7865899.92 68.5
475392.76 7865902.18 68.47
475392.33 7865902.6 68.49
475391.42 7865904.33 68.45
475391.62 7865901.76 68.48
475393.92 7865891.25 68.65
475390.64 7865894.52 68.59
475393.36 7865897.34 68.55
475394.02 7865903.48 68.45
475391.13 7865898.11 68.53
475390.94 7865894.33 68.59
475394.15 7865902.75 68.46
475392.27 7865900.61 68.51
475394.16 7865891.24 68.67
475390.63 7865904.5 68.42
475392.75 7865898 68.53
475392.34 7865906.01 68.43
475392.36 7865897.55 68.54
475393.46 7865893.89 68.59
475393.4 7865891.52 68.64
475392.6 7865901.27 68.5
475393.43 7865899.73 68.52
475391.17 7865902.8 68.47
475391.34 7865903.11 68.48
475390.63 7865905.92 68.45
475393.68 7865904.02 68.46
475393.99 7865893.73 68.61
475394.05 7865894.72 68.61
475391.55 7865903.59 68.44
475393.42 7865899.14 68.53
475393.35 7865899.45 68.53
475391.14 7865904.11 68.46
475392.64 7865897.32 68.54
475390.67 7865905.7 68.45
475392.67 7865898.48 68.52
475392.64 7865894.34 68.6
475393.56 7865896.57 68.59
475392.8 7865900.26 68.51
475391.34 7865899.02 68.51
475392.15 7865891.51 68.63
475393.88 7865897.09 68.55
475393.15 7865892.97 68.6
475391.79 7865903.54 68.45
475391.16 7865895.92 68.58
475391.95 7865904.01 68.43
475392.94 7865901.47 68.51
475391.9 7865892.95 68.6
475393.28 7865897.82 68.53
475391.68 7865899.9 68.51
475392.38 7865898.77 68.52
475394.17 7865893.55 68.63
475393.5 7865893.66 68.61
475393.3 7865904.95 68.45
475391.07 7865904.44 68.47
475393.57 7865896.14 68.58
475393.09 7865901.66 68.5
475392.07 7865901.59 68.49
475391.26 7865899.5 68.51
475392.02 7865892.24 68.6
475392.16 7865899.08 68.53
475392.39 7865902.27 68.49
475391.33 7865897.12 68.58
475393.61 7865905.9 68.46
475393.38 7865898.57 68.5
475393.46 7865903.98 68.44
475393.33 7865894.63 68.56
475393.54 7865904.91 68.45
475393.28 7865897.91 68.54
475393.15 7865898.55 68.51
475392.83 7865903.89 68.46
475391.17 7865891.94 68.64
475393.73 7865905.17 68.46
475392.07 7865897.65 68.56
475392.67 7865900.93 68.5
475393.39 7865901.43 68.49
475393.58 7865893.17 68.61
475391.3 7865895.25 68.6
475392.87 7865899.92 68.52
475393.7 7865893.89 68.59
475393.53 7865896.38 68.56
475394.16 7865905.54 68.47
475392.06 7865896.29 68.57
475393.76 7865895.57 68.61
475393.07 7865893.44 68.59
475391.94 7865894.21 68.6
475392.59 7865904.56 68.45
475392.41 7865899.93 68.51
475393.05 7865894.91 68.57
475392.75 7865894.3 68.59
475393.84 7865905.25 68.49
475393.61 7865901.76 68.48
475393.23 7865890.97 68.7
475392.21 7865900.92 68.49
475393.02 7865892.95 68.63
475392.39 7865892.99 68.6
475391.54 7865904.99 68.47
475393.96 7865891 68.68
475393.55 7865898.47 68.54
475393.82 7865897.13 68.58
475391.79 7865897.09 68.57
475393.35 7865901.66 68.48
475392.93 7865901.22 68.47
475392.43 7865905.53 68.45
475393.26 7865899.29 68.5
475394.19 7865898.38 68.53
475393.03 7865897.75 68.52
475392.9 7865900 68.48
475392.87 7865901.82 68.5
475391.24 7865899.77 68.51
475391.14 7865897.29 68.52
475391.53 7865890.96 68.67
475392.85 7865895.72 68.6
475393.69 7865901.66 68.52
475393.02 7865891.05 68.69
475393.21 7865905.43 68.46
475392.55 7865895.28 68.6
475392.22 7865899.73 68.51
475390.67 7865904.26 68.43
475391.47 7865901.09 68.5
475392.34 7865899.02 68.51
475393.38 7865899.99 68.5
475392.26 7865905.08 68.48
475392.01 7865896.54 68.57
475391.4 7865894.44 68.61
475390.77 7865892.43 68.62
475391.25 7865905.62 68.48
475393.14 7865900.48 68.51
475393.18 7865899.77 68.51
475394.16 7865901.68 68.5
475393.14 7865891.45 68.66
475393.96 7865902.67 68.48
475391.48 7865895.36 68.59
475392.93 7865904.08 68.44
475393.1 7865902.55 68.49
475394 7865890.77 68.69
475392.11 7865898.99 68.52
475391.8 7865902.94 68.48
475392 7865897.97 68.55
475392.81 7865893.38 68.6
475391.54 7865896.09 68.59
475392.22 7865895.32 68.57
475392.49 7865902.42 68.47
475393.76 7865897.45 68.57
475390.64 7865891.8 68.63
475394.03 7865893.49 68.6
475393.65 7865899.86 68.52
475393.48 7865902.49 68.46
475394.17 7865895.39 68.61
475391.38 7865899.1 68.52
475391.01 7865902.33 68.47
475392.48 7865896.82 68.57
475393.34 7865893.24 68.59
475390.82 7865897.6 68.53
475392.85 7865891.72 68.64
475392.06 7865894.91 68.6
475391.2 7865892.88 68.61
475393.52 7865900.7 68.52
475392.73 7865891.06 68.68
475391.1 7865899.02 68.5
475390.89 7865898.73 68.52
475394.17 7865899.34 68.54
475391.91 7865902.82 68.46
475392.15 7865904.35 68.44
475393.67 7865891.7 68.66
475393.47 7865900.95 68.5
475392.26 7865896.52 68.58
475393.14 7865894.43 68.58
475394.18 7865904.05 68.45
475391.24 7865891.58 68.66
475390.9 7865894.56 68.59
475393.75 7865903.68 68.46
475393.85 7865898.77 68.5
475393.36 7865891.77 68.64
475391.96 7865900.08 68.52
475391.52 7865892.17 68.63
475392.49 7865891.06 68.66
475392.12 7865905.49 68.47
475391.68 7865895.43 68.6
475392.93 7865902.63 68.46
475394.08 7865901.76 68.46
475391.99 7865903.78 68.47
475392.32 7865903.38 68.43
475393.55 7865903.5 68.43
475391.86 7865898.64 68.54
475393.41 7865895.58 68.58
475392.68 7865905.53 68.45
475394.17 7865893.99 68.6
475390.97 7865895.5 68.56
475392.28 7865892.28 68.61
475391 7865904.78 68.48
475393.6 7865892.03 68.65
475391.59 7865899.98 68.52
475391.17 7865905.98 68.47
475390.98 7865905.5 68.46
475393.73 7865901.04 68.5
475392.02 7865893.77 68.6
475392.63 7865904.33 68.45
475391.36 7865894.92 68.61
475393.53 7865894.85 68.6
475392.23 7865892.74 68.62
475391.46 7865905.47 68.46
475392.13 7865895.42 68.6
475393.21 7865900.13 68.51
475391.09 7865900.46 68.49
475392.41 7865895.96 68.59
475391.1 7865896.14 68.58
475393.08 7865896.07 68.57
475393.71 7865903.94 68.44
475393.62 7865896.23 68.6
475390.73 7865891.32 68.65
475391.82 7865900.68 68.49
475391.04 7865894.52 68.61
475391.45 7865891.44 68.63
475391.59 7865897.57 68.54
475393.17 7865902.2 68.49
475391.38 7865901.01 68.49
475390.86 7865905.45 68.48
475392.9 7865894.41 68.59
475392.14 7865895.81 68.58
475391.41 7865905.72 68.44
475392.97 7865900.98 68.49
475393.22 7865902.4 68.47
475393.05 7865894.71 68.6
475367.86 7865906.25 68.41
475373.69 7865907.02 68.38
475370.07 7865907.29 68.42
475374.76 7865909.87 68.39
475373.27 7865906.89 68.39
475371.44 7865909.51 68.37
475372.04 7865909.82 68.37
475370.21 7865908.91 68.38
475369.24 7865907.02 68.4
475369.01 7865908.21 68.34
475371.9 7865907.1 68.4
475373.95 7865908.2 68.39
475369.84 7865908.49 68.39
475366.23 7865907.68 68.41
475370.52 7865908.09 68.41
475370.4 7865908.98 68.39
475373.61 7865906.27 68.41
475367.74 7865908.09 68.37
475368.84 7865907.97 68.39
475373.4 7865909.74 68.39
475370.21 7865906.56 68.42
475373.34 7865907.87 68.43
475372.97 7865909.65 68.39
475368.36 7865909.34 68.37
475373.6 7865907.5 68.38
475369.22 7865908.29 68.37
475370.28 7865907.33 68.41
475371.26 7865908.09 68.4
475371.61 7865906.41 68.41
475366.4 7865908.05 68.4
475372.73 7865906.89 68.43
475371.25 7865906.88 68.4
475367.84 7865907.61 68.36
475366.45 7865908.6 68.41
475372.36 7865907.06 68.39
475369.63 7865907.44 68.41
475374.76 7865908.91 68.41
475374.22 7865909.06 68.39
475371.4 7865908.55 68.4
475373.6 7865908.45 68.42
475373.16 7865908.68 68.39
475366.65 7865907.87 68.39
475373.64 7865908.52 68.39
475374.82 7865906.5 68.43
475368.26 7865906.48 68.4
475368.32 7865909.57 68.38
475373.74 7865906.77 68.41
475367.08 7865907.67 68.41
475369.55 7865906.58 68.41
475366.8 7865907.13 68.41
475367.79 7865907.84 68.38
475367.58 7865907.69 68.37
475369.12 7865906.52 68.42
475366.73 7865907.26 68.42
475366.31 7865909.27 68.4
475369.89 7865908.26 68.39
475367.07 7865908.11 68.37
475371.62 7865908.54 68.38
475368.87 7865906.68 68.42
475373.28 7865909.18 68.39
475371.67 7865908.31 68.4
475372.2 7865906.68 68.39
475371.55 7865908.81 68.4
475373.11 7865908.92 68.41
475371.34 7865907.73 68.39
475366.8 7865906.91 68.42
475374.43 7865906.85 68.43
475366.44 7865906.67 68.42
475366.31 7865908.52 68.41
475372.66 7865907.24 68.42
475374.4 7865908.51 68.42
475373.2 7865908.54 68.41
475371.12 7865906.34 68.39
475367.89 7865908.41 68.39
475368.09 7865906.43 68.42
475373.14 7865907.61 68.4
475371.22 7865906.51 68.42
475370.09 7865908.29 68.41
475366.48 7865906.57 68.39
475367.72 7865906.96 68.39
475367.26 7865907.14 68.39
475367.3 7865906.64 68.41
475373.83 7865906.29 68.4
475373.06 7865909.21 68.41
475372.26 7865907.55 68.4
475373.23 7865907.12 68.41
475370.93 7865909.9 68.38
475367.02 7865908.34 68.39
475368.42 7865906.73 68.39
475369.42 7865909.43 68.41
475366.84 7865906.9 68.39
475368.39 7865908 68.36
475371.94 7865906.86 68.4
475374.53 7865908.65 68.4
475367.93 7865907.12 68.38
475372.64 7865908.92 68.38
475374.62 7865908.17 68.4
475366.54 7865907.31 68.39
475367.88 7865907.46 68.41
475370.12 7865907.05 68.4
475369.59 7865908.74 68.38
475366.88 7865909.07 68.39
475371.34 7865906.4 68.4
475371.4 7865907.41 68.41
475366.97 7865907.53 68.4
475367.67 7865908.45 68.4
475368.02 7865906.64 68.4
475369.3 7865908.19 68.39
475367.6 7865909.86 68.37
475370.85 7865907.78 68.42
475374.32 7865908.57 68.42
475370.4 7865907.95 68.4
475371.77 7865906.62 68.39
475373.91 7865907.07 68.4
475370.71 7865908.52 68.4
475368.02 7865906.79 68.41
475372.69 7865908.67 68.41
475368.11 7865909.45 68.39
475367.6 7865906.43 68.4
475367.13 7865908.85 68.38
475370.26 7865909.71 68.4
475368.03 7865907.68 68.39
475372.09 7865909.56 68.39
475368.6 7865909.18 68.39
475374.5 7865907.6 68.4
475366.95 7865908.34 68.4
475368.07 7865907.44 68.39
475370.54 7865907.22 68.4
475368.2 7865908.97 68.37
475367.24 7865908.66 68.4
475367.16 7865907.31 68.41
475371.48 7865909.28 68.37
475374.97 7865907.59 68.42
475369.16 7865909.85 68.39
475373.82 7865909.28 68.4
475371.3 7865906.63 68.4
475374.27 7865908.82 68.4
475366.42 7865909.06 68.36
475367.32 7865908.3 68.4
475373.63 7865909.88 68.37
475372.08 7865908.09 68.41
475371.85 7865909.71 68.37
475374.22 7865906.76 68.42
475366.95 7865909.81 68.4
475374.38 7865907.09 68.42
475373 7865908.34 68.41
475367.11 7865906.81 68.38
475368.4 7865909.07 68.39
475371.08 7865906.59 68.4
475367.52 7865907.32 68.41
475366.93 7865908.83 68.39
475374.81 7865909.61 68.4
475367.7 7865908.32 68.38
475373.74 7865907.79 68.41
475371.57 7865908.79 68.37
475369.16 7865906.29 68.41
475368.73 7865907.41 68.38
475370.41 7865906.78 68.43
475366.28 7865909.8 68.39
475374.9 7865908.24 68.42
475369.96 7865906.8 68.4
475372.04 7865906.45 68.41
475372.59 7865909.48 68.39
475366.79 7865909.55 68.39
475374.68 7865907.17 68.43
475374.04 7865907.72 68.41
475370.58 7865906.98 68.4
475367.12 7865907.86 68.41
475374.85 7865906.95 68.42
475372.82 7865909.31 68.38
475371.2 7865908.46 68.4
475374.97 7865907.9 68.43
475371.54 7865907.82 68.39
475374.48 7865908.88 68.41
475368.73 7865909.66 68.39
475369.17 7865908.51 68.38
475373.02 7865909.4 68.37
475369.36 7865909.94 68.4
475372.73 7865908.82 68.4
475374.34 7865909.62 68.38
475372.15 7865907.77 68.42
475370.73 7865907.29 68.39
475372.17 7865908.03 68.4
475373.88 7865907.11 68.42
475371.31 7865909.03 68.37
475370.66 7865909.19 68.4
475372.24 7865909.26 68.4
475370.36 7865909.22 68.4
475369.1 7865907.73 68.38
475372.57 7865908.13 68.39
475374.52 7865906.36 68.41
475372.46 7865909.89 68.36
475368.14 7865908.18 68.39
475373.88 7865908.96 68.41
475369.61 7865909.71 68.4
475372.53 7865908.36 68.39
475374.2 7865909.49 68.4
475367.3 7865909.14 68.39
475373.56 7865907.73 68.41
475370.49 7865907.47 68.39
475369.13 7865908.76 68.38
475370.01 7865906.57 68.41
475369.27 7865906.69 68.43
475373.06 7865906.74 68.4
475367.48 7865908.18 68.38
475374.61 7865907.49 68.42
475374.56 7865909.76 68.41
475373 7865907.48 68.42
475374.74 7865908.8 68.39
475371.02 7865908.08 68.39
475372.83 7865907.95 68.41
475370.8 7865906.75 68.42
475368.99 7865909.48 68.38
475367.39 7865907.98 68.39
475368.46 7865909.9 68.38
475373.86 7865908.69 68.4
475370.03 7865907.53 68.4
475372.08 7865908.51 68.4
475369.33 7865906.53 68.43
475367.04 7865909.33 68.37
475370.66 7865907.41 68.41
475373.1 7865906.51 68.42
475372.22 7865907.43 68.42
475366.16 7865907.19 68.39
475367.77 7865906.73 68.39
475372.74 7865908.44 68.39
475372.22 7865907.77 68.39
475370.42 7865906.61 68.41
475367.46 7865909.48 68.39
475368.78 7865907.16 68.41
475373.18 7865907.38 68.4
475372.35 7865909.33 68.38
475369.5 7865906.83 68.42
475366.52 7865908.25 68.41
475370.46 7865906.37 68.42
475372.94 7865907.81 68.42
475373.42 7865908.46 68.4
475369.3 7865909.14 68.38
475374.37 7865906.6 68.44
475373.25 7865908.19 68.41
475374.98 7865909.88 68.38
475370.57 7865909.23 68.39
475370.59 7865908.01 68.4
475371.21 7865907.11 68.4
475370.26 7865908.67 68.38
475373.92 7865909.51 68.41
475371.64 7865909.58 68.37
475367.56 7865906.67 68.39
475371.94 7865909.23 68.37
475372.29 7865907.1 68.42
475374.09 7865909.79 68.41
475372.5 7865906.33 68.4
475373.82 7865907.55 68.4
475368.29 7865908.48 68.37
475372.59 7865906.92 68.42
475371.53 7865906.77 68.39
475374.7 7865909.24 68.41
475373.97 7865909.26 68.39
475369.56 7865909.94 68.39
475366.5 7865909.93 68.39
475371.17 7865909.75 68.38
475373.32 7865909.8 68.4
475369.79 7865908.74 68.38
475372.13 7865909.33 68.38
475374.27 7865906.51 68.4
475368.75 7865907.41 68.4
475368.47 7865906.48 68.4
475368.27 7865909.74 68.41
475374.75 7865906.81 68.43
475370.91 7865906.33 68.41
475366.88 7865908.66 68.4
475366.39 7865907.05 68.42
475369.81 7865906.47 68.42
475368.18 7865907.93 68.38
475369.13 7865907.37 68.42
475374.3 7865909.85 68.41
475368.33 7865909.42 68.39
475367.95 7865907.1 68.41
475368.87 7865908.95 68.37
475369.92 7865909.15 68.41
475370.79 7865909.3 68.38
475369.44 7865908.4 68.39
475372.62 7865907.88 68.4
475374.83 7865908.57 68.42
475367.16 7865907.63 68.39
475374.13 7865907.24 68.4
475366.89 7865906.65 68.39
475372.76 7865907.17 68.41
475366.49 7865907.56 68.38
475368.91 7865908.7 68.37
475374.04 7865906.36 68.42
475366.38 7865908.92 68.41
475370.82 7865906.82 68.41
475370.93 7865908.56 68.38
475373.01 7865906.99 68.39
475366.73 7865908.74 68.41
475367.79 7865908.9 68.38
475371.81 7865909.43 68.39
475373.96 7865908.61 68.41
475372.68 7865906.43 68.4
475368.92 7865908.38 68.38
475366.43 7865906.82 68.4
475371.92 7865908.13 68.4
475374.32 7865906.27 68.39
475368.96 7865908.46 68.37
475373.68 7865909.95 68.4
475371.59 7865907.58 68.39
475372.32 7865908.36 68.39
475369.98 7865906.75 68.42
475371.03 7865906.82 68.4
475366.75 7865907.39 68.4
475373.81 7865908.92 68.4
475374.56 7865909.92 68.4
475372.79 7865906.57 68.42
475368.51 7865906.34 68.43
475368.23 7865907.7 68.36
475367.32 7865907.88 68.38
475374.16 7865907.62 68.43
475368.03 7865908.68 68.39
475373.77 7865909.17 68.39
475372.04 7865908.74 68.38
475369.19 7865907.24 68.41
475371.73 7865909.78 68.38
475367.39 7865908.66 68.39
475371.22 7865909.51 68.36
475372.41 7865907.88 68.41
475368.71 7865906.31 68.42
475372.66 7865909.14 68.41
475372.78 7865908.2 68.41
475369.75 7865908.98 68.37
475370.45 7865908.75 68.37
475369.85 7865909.46 68.41
475366.67 7865909.68 68.4
475371.11 7865908.93 68.39
475367.86 7865909.63 68.36
475369.54 7865908.98 68.39
475369.45 7865909.46 68.39
475371.07 7865907.84 68.41
475370.74 7865909.53 68.39
475374.85 7865909.38 68.38
475369.16 7865908.86 68.39
475371.36 7865908.78 68.38
475369.38 7865906.28 68.4
475369.44 7865907.52 68.41
475368.62 7865906.78 68.43
475367.84 7865908.64 68.39
475371.82 7865906.37 68.39
475372.38 7865908.59 68.41
475373.65 7865907.26 68.41
475374.68 7865906.64 68.41
475368.1 7865908.34 68.39
475374.01 7865906.45 68.43
475372.67 7865907.65 68.39
475371.62 7865906.29 68.39
475368.56 7865909.42 68.38
475372.81 7865906.91 68.42
475369.99 7865908.79 68.41
475372.39 7865909.1 68.38
475370 7865908.77 68.4
475372.64 7865906.67 68.4
475368.07 7865906.39 68.41
475374.24 7865907.81 68.41
475374.89 7865906.72 68.4
475366.53 7865906.34 68.41
475372.36 7865908.11 68.39
475372.24 7865906.43 68.39
475370.47 7865906.47 68.42
475372.97 7865907.23 68.4
475369.35 7865908.89 68.37
475369.53 7865907.92 68.4
475370.68 7865907.53 68.4
475367.16 7865909.85 68.39
475369.36 7865907.55 68.4
475370.63 7865907.78 68.41
475368.64 7865907.89 68.37
475373.29 7865907.95 68.41
475367.42 7865909.76 68.39
475366.64 7865909.22 68.4
475373.41 7865907.51 68.42
475366.25 7865906.71 68.41
475370.5 7865908.49 68.41
475370.02 7865909.88 68.41
475366.93 7865906.42 68.39
475367.42 7865907.4 68.38
475366.55 7865909.7 68.4
475369.64 7865908.5 68.38
475366.74 7865909.79 68.39
475368.94 7865909.73 68.38
475372.91 7865908.82 68.38
475368.99 7865908.04 68.4
475368.83 7865906.92 68.41
475367.04 7865909.64 68.4
475372.44 7865908.85 68.38
475368.69 7865907.64 68.4
475371.14 7865906.86 68.43
475371.9 7865909.48 68.37
475370.86 7865908.21 68.41
475372.48 7865908.61 68.4
475368.65 7865908.94 68.37
475369.39 7865908.66 68.37
475366.64 7865906.83 68.4
475366.34 7865907.3 68.38
475366.47 7865908.83 68.39
475372.3 7865909.58 68.37
475370.05 7865908.54 68.4
475373.51 7865907.98 68.4
475373.14 7865908.85 68.41
475368.15 7865909.2 68.38
475373.34 7865907.72 68.39
475368.68 7865907.73 68.41
475373.28 7865908.18 68.42
475370.37 7865906.84 68.41
475372.51 7865909.64 68.37
475370.2 7865907.81 68.41
475372.1 7865909.93 68.39
475373.77 7865907.81 68.39
475374.94 7865906.48 68.42
475369.49 7865909.09 68.4
475374.47 7865906.61 68.43
475368 7865908.89 68.39
475368.47 7865908.76 68.38
475372.01 7865908.44 68.42
475372.6 7865909.16 68.38
475368.34 7865908.24 68.36
475373.72 7865909.4 68.37
475371.41 7865909.48 68.39
475371.45 7865908.3 68.39
475369.95 7865909.02 68.38
475369.59 7865906.35 68.41
475369.78 7865909.82 68.42
475367.81 7865906.48 68.4
475368.92 7865906.44 68.42
475370.52 7865909.86 68.41
475366.36 7865908.27 68.4
475374.06 7865908.78 68.39
475366.45 7865907.79 68.39
475367.63 7865907.44 68.39
475368.04 7865908.66 68.39
475374.93 7865907.83 68.41
475372.9 7865906.43 68.4
475370.14 7865908.06 68.4
475370.54 7865908.26 68.4
475367.35 7865908.89 68.39
475369.2 7865907.04 68.42
475368.32 7865907.22 68.39
475368.53 7865907.27 68.39
475372.52 7865907.92 68.41
475374.18 7865906.99 68.42
475371.49 7865909.13 68.39
475373.66 7865908.14 68.42
475369.78 7865907.77 68.39
475373.57 7865906.5 68.4
475374.63 7865906.89 68.41
475371.13 7865908.76 68.41
475366.73 7865906.35 68.39
475373.49 7865909.26 68.41
475370.46 7865908.41 68.42
475367.18 7865908.97 68.4
475374.61 7865909.53 68.4
475371.48 7865907 68.4
475369.77 7865907.76 68.42
475371.12 7865907.59 68.4
475367.81 7865909.86 68.38
475373.54 7865909 68.4
475368.88 7865907.74 68.4
475369.91 7865909.26 68.39
475371.57 7865906.53 68.38
475373.62 7865906.51 68.42
475368.71 7865909.38 68.4
475366.98 7865908.59 68.38
475367.16 7865906.56 68.41
475367.95 7865909.15 68.38
475374.3 7865906.95 68.43
475374.44 7865906.28 68.44
475370.3 7865908.43 68.41
475369.35 7865909.77 68.42
475372.06 7865907.39 68.4
475370.12 7865909.4 68.39
475373.95 7865906.84 68.4
475367.91 7865909.38 68.38
475368.12 7865907.19 68.39
475370.35 7865908.18 68.39
475370.72 7865906.25 68.39
475374.13 7865909.54 68.39
475367.4 7865906.41 68.41
475367.67 7865907.22 68.41
475371.69 7865909.32 68.37
475367.44 7865908.41 68.36
475369.82 7865907.53 68.4
475367.39 7865909.79 68.4
475374.26 7865909.19 68.4
475371.08 7865907.18 68.42
475369.03 7865909.25 68.39
475370.7 7865909.78 68.37
475370.26 7865906.33 68.41
475371.77 7865907.79 68.4
475366.59 7865907.93 68.41
475370.97 7865909.67 68.37
475372.36 7865906.75 68.43
475371.78 7865908.84 68.39
475374.1 7865907.94 68.43
475373.37 7865906.41 68.4
475374.2 7865908.06 68.41
475372.27 7865908.6 68.4
475367.75 7865909.12 68.39
475373.09 7865907.86 68.41
475368.7 7865908.7 68.37
475371.88 7865908.36 68.41
475367.02 7865907.98 68.41
475366.16 7865908.01 68.42
475370.67 7865906.5 68.4
475374.34 7865907.32 68.42
475367.53 7865907.93 68.39
475368.89 7865909.96 68.39
475366.68 7865906.6 68.38
475374.41 7865908.09 68.43
475369.91 7865907.08 68.42
475372.31 7865908.9 68.4
475366.2 7865906.95 68.39
475371.35 7865909.79 68.4
475373 7865909.53 68.39
475368.82 7865907.06 68.42
475373.73 7865908.03 68.41
475366.7 7865907.61 68.39
475374.88 7865908.08 68.41
475371.5 7865908.06 68.38
475374.36 7865908.34 68.4
475366.92 7865907.77 68.37
475367.56 7865909.05 68.37
475366.51 7865906.34 68.42
475372.15 7865906.91 68.39
475371.99 7865908.99 68.39
475371.39 7865907.49 68.39
475367.82 7865909.69 68.39
475370.39 7865908.75 68.41
475371.43 7865907.26 68.4
475368.64 7865909.73 68.41
475372.31 7865907.29 68.4
475369.07 7865906.77 68.42
475368.93 7865907.48 68.4
475368.27 7865909.82 68.38
475371.3 7865907.97 68.39
475370.89 7865907.55 68.4
475369.27 7865908.03 68.39
475369.4 7865907.32 68.4
475370.88 7865908.81 68.4
475373.78 7865906.53 68.41
475368.78 7865909.05 68.39
475371 7865907.53 68.4
475371.02 7865909.42 68.37
475371.68 7865907.1 68.38
475367.01 7865907.29 68.4
475371.64 7865907.33 68.4
475368.51 7865906.25 68.41
475366.29 7865906.47 68.41
475370.06 7865908.48 68.41
475368.74 7865908.45 68.36
475367.35 7865906.66 68.39
475368.31 7865907.33 68.41
475374.12 7865909.85 68.4
475368.89 7865906.74 68.43
475371.53 7865909.03 68.39
475366.56 7865908.35 68.39
475369.86 7865909.5 68.37
475366.17 7865909.24 68.4
475367.3 7865906.9 68.38
475369.91 7865907.06 68.41
475370.87 7865906.56 68.41
475366.59 7865907.08 68.41
475373.46 7865908.22 68.4
475370.31 7865909.46 68.39
475370.19 7865907.81 68.4
475374.18 7865909.3 68.39
475373.8 7865907.47 68.42
475371.91 7865907.11 68.42
475368.48 7865907.52 68.39
475370.84 7865909.04 68.37
475368.38 7865907 68.42
475370.59 7865907.74 68.42
475369.7 7865908.09 68.42
475372.52 7865909.82 68.39
475372.71 7865907.39 68.41
475367.11 7865909.33 68.4
475368.44 7865906.67 68.43
475369.23 7865908.54 68.39
475368.17 7865908.01 68.4
475370.61 7865909 68.4
475372.8 7865908.48 68.41
475372.95 7865908.58 68.4
475371.06 7865909.19 68.38
475367.18 7865908.6 68.37
475373.86 7865907.33 68.4
475371.87 7865909.11 68.38
475374.01 7865909.03 68.39
475372.92 7865907.47 68.4
475368.6 7865908.12 68.39
475370.22 7865909.94 68.38
475373.21 7865906.47 68.42
475367.89 7865909.35 68.38
475369.21 7865909.62 68.39
475368.51 7865909.67 68.39
475366.3 7865907.34 68.41
475370.72 7865908.88 68.4
475371.27 7865909.26 68.38
475370.87 7865906.4 68.43
475369.72 7865906.95 68.41
475370.8 7865908.04 68.42
475372.92 7865909.88 68.38
475366.88 7865908 68.38
475370.17 7865906.81 68.42
475371.76 7865907.83 68.39
475370.63 7865906.74 68.42
475366.84 7865909.3 68.39
475374.75 7865907.44 68.41
475372.25 7865909.81 68.36
475368.23 7865907.68 68.41
475368.57 7865907.04 68.39
475369.02 7865907.01 68.43
475368.25 7865908.71 68.38
475373.55 7865906.84 68.41
475371.63 7865908.45 68.4
475372.22 7865908.85 68.37
475371.25 7865908.22 68.38
475374.29 7865907.58 68.4
475371.83 7865907.47 68.41
475372.17 7865909.57 68.39
475373.15 7865906.8 68.42
475370.27 7865907.45 68.41
475367.22 7865907 68.42
475366.69 7865908.97 68.41
475367.6 7865906.95 68.41
475368.55 7865908.37 68.38
475370.59 7865909.55 68.4
475367.06 7865907.04 68.38
475373.88 7865909.74 68.41
475366.2 7865908.01 68.41
475369.58 7865906.84 68.42
475372.86 7865909.06 68.39
475370.18 7865909.75 68.41
475369.5 7865909.21 68.38
475368.97 7865907.25 68.4
475369.49 7865908.17 68.38
475370.75 7865908.27 68.4
475372.59 7865907.56 68.42
475374.84 7865908.31 68.41
475368.37 7865906.96 68.41
475366.33 7865909.54 68.39
475372.55 7865909.4 68.38
475367.09 7865909.09 68.38
475373.14 7865909.92 68.38
475368.41 7865909.08 68.39
475372.72 7865909.79 68.37
475367.7 7865909.37 68.38
475372.43 7865906.43 68.43
475366.25 7865907.79 68.4
475374.9 7865909.13 68.38
475367.46 7865909.54 68.39
475367.74 7865906.29 68.42
475374.09 7865907.47 68.41
475373.68 7865908.29 68.41
475366.74 7865909.32 68.41
475370.32 7865907.09 68.42
475373.15 7865906.26 68.42
475370.73 7865907.07 68.42
475370.05 7865906.41 68.43
475369.67 7865907.2 68.42
475373.45 7865909.48 68.41
475372.01 7865907.64 68.4
475370.98 7865907.08 68.39
475368.82 7865909.18 68.38
475374.71 7865907.68 68.4
475369.87 7865907.28 68.41
475367 7865909.56 68.39
475372.93 7865909.89 68.38
475373.91 7865908.44 68.39
475368.06 7865909.68 68.39
475370.17 7865909.15 68.4
475367.23 7865908.37 68.38
475372.87 7865907.71 68.41
475371.16 7865907.37 68.41
475374.02 7865908.3 68.42
475370.97 7865908.33 68.38
475369.84 7865907.43 68.42
475369.73 7865908.02 68.4
475369.81 7865909.74 68.39
475370.66 7865908.75 68.38
475372.4 7865906.81 68.4
475366.61 7865908.1 68.38
475369.05 7865907.98 68.38
475366.87 7865906.59 68.42
475373.19 7865909.67 68.38
475373.2 7865908.43 68.41
475366.83 7865908.26 68.4
475372.5 7865907.4 68.4
475366.59 7865909.46 68.38
475369.7 7865909.22 68.39
475371.83 7865908.61 68.39
475368.68 7865909.91 68.38
475374.23 7865907.27 68.43
475367.6 7865908.8 68.4
475371.6 7865909.81 68.37
475370.8 7865908.52 68.4
475374.72 7865906.41 68.43
475367.53 7865909.12 68.39
475367.65 7865908.57 68.38
475369.45 7865907.06 68.41
475370.06 7865906.32 68.42
475371.19 7865908.43 68.4
475371.85 7865907.34 68.4
475374.8 7865907.2 68.41
475369.37 7865907.87 68.4
475374 7865907.95 68.4
475374.59 7865907.13 68.42
475373.59 7865908.77 68.39
475374.39 7865909.37 68.4
475369.06 7865907.71 68.4
475366.26 7865908.76 68.38
475370.32 7865909.09 68.41
475367.65 7865909.6 68.37
475368.77 7865909.43 68.38
475373.39 7865909.48 68.4
475366.17 7865909.93 68.41
475370.07 7865909.63 68.39
475369.98 7865907.78 68.42
475366.25 7865909.59 68.41
475370.94 7865907.3 68.4
475371.06 7865909.1 68.39
475374.11 7865908.54 68.39
475369.58 7865907.69 68.4
475368.45 7865908.85 68.37
475367.46 7865907.63 68.4
475370.33 7865907.14 68.42
475368.79 7865908.22 68.38
475371.39 7865909.76 68.38
475367.6 7865908.8 68.38
475370.52 7865909.48 68.38
475373.32 7865906.65 68.4
475374.47 7865908.15 68.44
475369.94 7865908.01 68.4
475371.69 7865908.14 68.41
475372.46 7865907.63 68.41
475372.85 7865906.68 68.4
475366.8 7865909.01 68.41
475369.56 7865908.77 68.41
475366.37 7865907.01 68.42
475371.54 7865906.75 68.41
475367.2 7865909.62 68.37
475367.37 7865907.63 68.37
475374.15 7865908.29 68.41
475366.78 7865908.49 68.41
475371.16 7865908.7 68.38
475367.21 7865907.38 68.39
475373.05 7865908.09 68.39
475367.98 7865907.93 68.38
475367.96 7865909.02 68.39
475368.5 7865908.61 68.37
475371.99 7865906.61 68.39
475369.09 7865909.22 68.4
475370.94 7865907.85 68.4
475373.08 7865907.13 68.43
475368.54 7865908.4 68.39
475368.01 7865909.93 68.37
475369.31 7865907.8 68.38
475373.74 7865909.64 68.4
475371.47 7865907.09 68.41
475369.76 7865906.73 68.41
475368.95 7865909.89 68.4
475374.94 7865908.9 68.4
475370.78 7865907.04 68.42
475370.48 7865909.72 68.39
475368.67 7865906.55 68.4
475370.92 7865909.77 68.4
475372.55 7865907.15 68.41
475368.17 7865906.97 68.39
475372.13 7865908.26 68.4
475367.98 7865906.87 68.41
475374.54 7865907.37 68.41
475372.03 7865906.38 68.39
475367.88 7865907.35 68.39
475369.34 7865906.36 68.42
475371.97 7865907.88 68.39
475374.54 7865907.84 68.43
475373.37 7865908.7 68.41
475373.32 7865908.95 68.39
475370.13 7865908.13 68.41
475372.1 7865907.17 68.4
475369.64 7865906.53 68.43
475371.73 7865906.85 68.4
475367.2 7865906.33 68.39
475374.33 7865908.83 68.41
475370.23 7865907.57 68.41
475367.36 7865906.33 68.42
475366.66 7865907.57 68.42
475372.18 7865909.08 68.37
475372.87 7865908.14 68.41
475368.85 7865908.71 68.38
475367.81 7865907.77 68.4
475367.25 7865909.37 68.39
475369.66 7865909.46 68.39
475369.63 7865908.42 68.41
475374.99 7865908.65 68.39
475368.43 7865907.75 68.39
475371.97 7865906.8 68.4
475373.52 7865908.81 68.41
475368.21 7865906.71 68.4
475368.09 7865908.41 68.39
475370.25 7865909.43 68.41
475367.51 7865906.92 68.38
475373.39 7865907.46 68.39
475366.21 7865909.01 68.39
475366.37 7865909.32 68.38
475372.77 7865909.55 68.36
475369.25 7865909.37 68.39
475369.02 7865909.53 68.4
475374.79 7865908.56 68.4
475373.48 7865906.99 68.4
475367.51 7865909.28 68.38
475367.93 7865908.16 68.37
475369.4 7865909.7 68.4
475374.7 7865909.04 68.41
475371.81 7865907.58 68.4
475374.43 7865909.13 68.4
475374.65 7865909.28 68.38
475373.06 7865909.16 68.38
475374.66 7865907.92 68.42
475368.28 7865907.45 68.39
475370.44 7865907.7 68.4
475371.94 7865908.77 68.4
475372.45 7865906.58 68.4
475367.66 7865906.64 68.41
475367.28 7865908.12 68.37
475371.33 7865907.75 68.4
475373.48 7865907.2 68.42
475371.71 7865908.06 68.39
475368.61 7865908.08 68.39
475366.29 7865907.53 68.41
475368.96 7865906.38 68.43
475373.46 7865909.13 68.41
475367.74 7865908.13 68.4
475372.45 7865908.23 68.41
475374.92 7865909.86 68.41
475373.43 7865907.23 68.4
475369.68 7865908.25 68.39
475374 7865906.59 68.41
475374.62 7865909.58 68.4
475369.15 7865907.5 68.39
475373.67 7865909.65 68.4
475369.08 7865908.99 68.39
475373.52 7865906.75 68.42
475374.57 7865908.41 68.42
475371.73 7865909.1 68.35
475371.8 7865909.96 68.36
475369.51 7865907.2 68.42
475369.29 7865906.76 68.42
475367.46 7865907.16 68.38
475373.23 7865909.43 68.4
475366.51 7865908.58 68.4
475370.99 7865909.43 68.4
475366.15 7865908.27 68.38
475373.94 7865906.8 68.43
475374.45 7865907.86 68.42
475376.71 7865908.36 68.4
475380.12 7865909.81 68.34
475386.32 7865909.45 68.37
475383.2 7865906.83 68.42
475377.62 7865908.13 68.4
475379.37 7865906.76 68.34
475375.74 7865909.77 68.37
475389.66 7865908.68 68.41
475382.42 7865908.83 68.38
475386.25 7865909.78 68.37
475385.28 7865908.37 68.42
475388.42 7865909.34 68.38
475381.68 7865906.33 68.41
475387.33 7865906.52 68.46
475378.82 7865906.44 68.43
475382.56 7865908.1 68.38
475388.64 7865906.26 68.48
475388.73 7865909.87 68.37
475380.38 7865906.51 68.37
475385.35 7865908.06 68.43
475380.75 7865909.91 68.33
475375.48 7865908.95 68.4
475383.85 7865909.36 68.39
475383.68 7865908.65 68.39
475389.46 7865908.44 68.4
475390.21 7865906.91 68.45
475383.18 7865908.75 68.39
475385.07 7865909.4 68.39
475375.26 7865908.42 68.42
475388.36 7865907.55 68.44
475377.79 7865909.51 68.39
475387.67 7865908.69 68.39
475385.95 7865907.15 68.41
475375.62 7865906.49 68.41
475379.67 7865908.11 68.38
475381.1 7865909.28 68.37
475385.69 7865908.61 68.39
475378.77 7865908.59 68.38
475375.55 7865906.81 68.43
475386.59 7865908.11 68.44
475390 7865908.13 68.4
475383.5 7865909.61 68.39
475377.35 7865908.6 68.39
475378.06 7865908.17 68.39
475389.08 7865907.73 68.42
475383.24 7865906.9 68.39
475390.49 7865909.34 68.41
475383.11 7865909.1 68.38
475389.87 7865908.84 68.4
475378.1 7865907.23 68.37
475378.36 7865909.71 68.36
475378.76 7865906.76 68.37
475388.94 7865908.85 68.4
475386.22 7865907.89 68.43
475380.61 7865906.6 68.37
475380.8 7865907.03 68.39
475390.46 7865906.89 68.45
475382.82 7865906.49 68.42
475379.52 7865906.78 68.37
475389.5 7865906.71 68.41
475388.32 7865909.29 68.38
475384.66 7865909.61 68.39
475389.7 7865908.43 68.41
475386 7865908.25 68.4
475390.56 7865907.92 68.43
475379.42 7865909.22 68.35
475389.25 7865906.76 68.42
475389.66 7865907.5 68.45
475377.18 7865907.02 68.39
475380.25 7865907.23 68.36
475386.46 7865906.97 68.43
475375.83 7865909.29 68.39
475381.7 7865909.94 68.38
475377.96 7865909.2 68.37
475377.97 7865906.47 68.39
475380.21 7865908.79 68.33
475389.29 7865907.91 68.41
475384.47 7865906.34 68.45
475378.99 7865906.33 68.58
475387.26 7865909.69 68.38
475383.42 7865909.5 68.38
475377.33 7865907.62 68.41
475384.6 7865907.71 68.41
475375.2 7865908.52 68.41
475387.72 7865907.04 68.44
475375.62 7865907.78 68.41
475387.8 7865907.96 68.43
475381.33 7865908.04 68.4
475384.15 7865907.31 68.42
475388.03 7865909.29 68.38
475386.64 7865907.45 68.45
475388.73 7865908.31 68.41
475381.46 7865909.24 68.38
475383.85 7865908.99 68.38
475387.62 7865907.04 68.47
475383.83 7865907.48 68.42
475376.22 7865909.63 68.41
475380.74 7865906.79 68.4
475378.9 7865909.77 68.39
475389.21 7865907.51 68.45
475377.62 7865908.54 68.36
475387.46 7865909.9 68.38
475388.83 7865907.32 68.46
475375.41 7865907.48 68.43
475380.6 7865907.46 68.39
475387.15 7865908.7 68.38
475384.42 7865907.22 68.43
475389.38 7865908.92 68.4
475388.82 7865909.18 68.39
475375 7865909.5 68.41
475381.71 7865907.3 68.38
475377.53 7865909.03 68.39
475380.54 7865908.49 68.35
475379.5 7865907.35 68.38
475390 7865906.74 68.45
475388.06 7865909.26 68.36
475378.22 7865907.75 68.39
475376.77 7865909.2 68.4
475383.97 7865906.81 68.44
475382.93 7865907.31 68.39
475388.27 7865906.65 68.45
475376.85 7865907.63 68.39
475378.77 7865907.53 68.37
475387.89 7865908.84 68.38
475387.08 7865909.73 68.38
475376.33 7865907.86 68.41
475381.47 7865907.36 68.4
475385.66 7865907.46 68.42
475390.18 7865908.81 68.41
475381.87 7865908.97 68.38
475377.44 7865909.5 68.38
475376.37 7865907.63 68.39
475377.07 7865906.43 68.4
475384.46 7865906.97 68.43
475389.12 7865907.47 68.42
475381.79 7865908.17 68.37
475382.51 7865908.35 68.37
475389.04 7865907.96 68.41
475381.63 7865907.78 68.37
475382.01 7865909.58 68.36
475380.93 7865907.66 68.37
475384.77 7865906.74 68.42
475375.21 7865908.68 68.38
475384.24 7865909.71 68.4
475381.04 7865907.33 68.4
475388.49 7865908.32 68.41
475384.45 7865908.68 68.4
475379.93 7865907.67 68.37
475382.19 7865908.62 68.37
475377.53 7865906.34 68.4
475384.21 7865909.88 68.37
475375.06 7865909.18 68.41
475375.62 7865906.5 68.44
475380.58 7865908.25 68.37
475387.68 7865907.27 68.43
475389.87 7865908.4 68.42
475380.91 7865908 68.39
475385.21 7865906.92 68.46
475375.14 7865908.82 68.4
475389.74 7865908.19 68.4
475387.84 7865909.08 68.37
475378.84 7865908.25 68.38
475380.4 7865909.22 68.34
475386.3 7865909.39 68.37
475382.14 7865908.87 68.38
475383.63 7865908.9 68.38
475376.98 7865909.29 68.4
475389.53 7865908.16 68.43
475376.84 7865908.2 68.4
475384.07 7865907.79 68.4
475375.35 7865907.94 68.41
475377.75 7865906.43 68.39
475380.29 7865907 68.39
475379.02 7865908.69 68.36
475381.27 7865909.72 68.37
475377.27 7865909.82 68.38
475380.63 7865908 68.37
475388.48 7865909.02 68.4
475376.28 7865908.11 68.4
475377.78 7865908.9 68.38
475387.14 7865907.31 68.42
475385.17 7865908.66 68.38
475390.56 7865908.98 68.4
475378.02 7865906.37 68.37
475389.39 7865908.84 68.4
475383.34 7865909.86 68.39
475380.48 7865907.34 68.37
475382.86 7865908.5 68.39
475386.02 7865908.87 68.39
475386.8 7865909.25 68.37
475377.41 7865909.16 68.39
475375.07 7865909.39 68.4
475389.16 7865907.24 68.43
475390.38 7865907.8 68.46
475377.82 7865909.93 68.38
475379.73 7865907.53 68.37
475378.5 7865908.98 68.37
475386.71 7865908.39 68.4
475389.96 7865908.37 68.4
475386.97 7865908.28 68.42
475384.89 7865907.41 68.42
475381.8 7865907.59 68.41
475388.95 7865909.85 68.37
475380.11 7865907.97 68.35
475383.38 7865907.75 68.42
475382.54 7865906.68 68.4
475388.53 7865906.59 68.46
475379.71 7865908.86 68.35
475383.55 7865908.83 68.39
475384.95 7865909.88 68.36
475384.25 7865908.19 68.39
475384.87 7865906.67 68.46
475379.42 7865906.52 68.3
475382.1 7865909.1 68.36
475385.91 7865908.74 68.39
475385.65 7865908.86 68.38
475378.75 7865908.87 68.36
475382.62 7865907.5 68.41
475380.75 7865908.63 68.35
475379.06 7865908.45 68.36
475385.99 7865909.64 68.36
475389.25 7865909.51 68.38
475388.99 7865906.85 68.46
475387.23 7865906.82 68.45
475381.37 7865906.52 68.41
475386.03 7865909.4 68.39
475384.72 7865908.38 68.39
475380.11 7865906.7 68.4
475380.47 7865908.14 68.38
475377.17 7865909.57 68.38
475376.39 7865908.55 68.41
475380.08 7865908.03 68.37
475382.98 7865907.06 68.4
475375.75 7865907.61 68.43
475378.79 7865909.9 68.37
475378.53 7865907.37 68.36
475386.34 7865909.15 68.39
475375.69 7865907.95 68.42
475377.03 7865909.01 68.38
475380.22 7865907.35 68.4
475382.25 7865909.8 68.37
475389.18 7865909.84 68.38
475383.98 7865908.28 68.39
475377.92 7865908.19 68.38
475381.45 7865908.75 68.37
475377.27 7865906.54 68.39
475375.2 7865906.38 68.42
475378.9 7865906.82 68.36
475381.6 7865908.57 68.39
475379.94 7865908.93 68.35
475377.39 7865907.08 68.39
475390.04 7865906.49 68.45
475377.74 7865909.16 68.37
475385 7865909.63 68.35
475388.57 7865907.84 68.42
475389 7865908.53 68.41
475380.34 7865906.74 68.39
475387.97 7865906.99 68.45
475376.33 7865906.63 68.41
475388.37 7865909.04 68.4
475384.58 7865909.11 68.38
475381.89 7865906.33 68.4
475387.01 7865908.04 68.41
475380.71 7865907.52 68.37
475381.36 7865909.23 68.35
475384.03 7865909.39 68.37
475389.14 7865907.86 68.44
475381.25 7865906.33 68.4
475376.19 7865907.36 68.41
475389.29 7865906.51 68.42
475387.54 7865909.42 68.39
475377.76 7865907.45 68.4
475384.38 7865907.46 68.41
475375.04 7865907.57 68.43
475375.84 7865906.59 68.4
475376.94 7865909.5 68.37
475380.29 7865907 68.38
475379.45 7865907.09 68.39
475388.27 7865908.03 68.44
475381.11 7865906.99 68.4
475383.29 7865908.02 68.38
475389.46 7865908.5 68.42
475387.69 7865906.7 68.48
475376.91 7865909.63 68.39
475384.59 7865908.01 68.43
475390.01 7865907.72 68.46
475375.21 7865907.45 68.42
475379.86 7865906.81 68.36
475386.86 7865906.76 68.45
475390.32 7865908.13 68.44
475375.53 7865908.27 68.39
475381.41 7865906.28 68.39
475380.8 7865909.66 68.34
475382.41 7865908.51 68.39
475383.99 7865909.64 68.39
475388.35 7865909.7 68.36
475389.07 7865909.13 68.37
475378 7865908.97 68.37
475380.88 7865909.18 68.34
475375.44 7865907.46 68.4
475381.9 7865909.01 68.4
475387.27 7865906.6 68.43
475384.86 7865906.26 68.45
475387.35 7865908.38 68.44
475382.38 7865909.07 68.37
475376.62 7865908.84 68.38
475379.02 7865907.43 68.38
475382.1 7865907.75 68.38
475379.77 7865907.29 68.4
475381.94 7865906.91 68.41
475385.79 7865906.72 68.43
475385.29 7865906.57 68.44
475380.04 7865909.75 68.33
475380.26 7865908.53 68.36
475375.71 7865907.3 68.41
475379.59 7865906.42 68.38
475379.89 7865907.9 68.38
475386.55 7865906.49 68.45
475388.82 7865907.82 68.43
475386.08 7865906.43 68.45
475389.21 7865909.89 68.36
475379.55 7865908.49 68.35
475382.54 7865909.48 68.37
475380.2 7865907.48 68.35
475383.94 7865908.51 68.39
475388.57 7865906.6 68.48
475379.04 7865909.11 68.38
475387.58 7865906.28 68.45
475379.4 7865909.45 68.37
475386.47 7865908.42 68.39
475390.28 7865906.38 68.46
475382.14 7865907.53 68.39
475377.04 7865907.75 68.41
475380.8 7865908.38 68.36
475389.6 7865909.74 68.39
475388.97 7865906.65 68.47
475386.98 7865909.67 68.35
475390.04 7865907.87 68.43
475382.27 7865909.19 68.4
475387.72 7865909.81 68.36
475381.4 7865907.67 68.4
475376.06 7865909.32 68.4
475380.81 7865906.45 68.41
475384.16 7865908.67 68.38
475375.76 7865908.44 68.4
475381.33 7865906.75 68.38
475385.82 7865907.89 68.4
475379.84 7865908.15 68.38
475389.71 7865906.98 68.45
475389.16 7865908.65 68.41
475387.5 7865909.66 68.38
475390.08 7865907.36 68.47
475386.2 7865908.43 68.39
475375.66 7865907.56 68.42
475387.8 7865909.32 68.37
475376.03 7865906.99 68.43
475378.49 7865909.93 68.37
475379.88 7865907.1 68.39
475384.2 7865907.06 68.41
475384.59 7865906.25 68.43
475382.48 7865908.18 68.41
475386.59 7865906.25 68.46
475385.44 7865908.65 68.4
475381.63 7865906.38 68.4
475378.19 7865906.74 68.35
475381.88 7865907.23 68.41
475385.28 7865906.6 68.45
475378.22 7865909.05 68.38
475389.24 7865908.16 68.4
475376.49 7865908.19 68.39
475379.31 7865907.77 68.38
475377.4 7865909.76 68.36
475375.34 7865907.84 68.42
475386.54 7865909.36 68.36
475378.7 7865908.92 68.39
475375.34 7865909.62 68.4
475389.59 7865907.71 68.42
475390.26 7865909.62 68.37
475378.26 7865908.82 68.37
475388.95 7865908.44 68.42
475390.48 7865908.4 68.39
475388.99 7865909.62 68.37
475390.13 7865908.83 68.38
475386.13 7865907.52 68.39
475379.28 7865907.23 68.4
475383.69 7865907.26 68.4
475387.3 7865909.46 68.39
475381.67 7865908.26 68.39
475380.67 7865907.77 68.36
475390.31 7865909.37 68.37
475388.9 7865907.34 68.46
475383.06 7865907.51 68.42
475382.01 7865906.95 68.4
475385.36 7865909.89 68.38
475376.81 7865906.51 68.39
475375.11 7865906.87 68.41
475375.99 7865907.22 68.39
475377.26 7865907.79 68.4
475390.29 7865907.86 68.44
475378.54 7865908.75 68.37
475376.66 7865908.59 68.38
475382.6 7865907.86 68.37
475378.48 7865908.11 68.39
475383.46 7865907.05 68.41
475382.85 7865907.79 68.39
475378.35 7865908.33 68.37
475380.56 7865909.69 68.35
475383.73 7865907.03 68.41
475377.48 7865907.89 68.4
475385.78 7865909.45 68.37
475385.27 7865909.62 68.36
475378.41 7865908.46 68.39
475389.79 7865909.33 68.4
475387.81 7865908.37 68.43
475378.13 7865908.23 68.4
475376.09 7865907.84 68.43
475378.71 7865906.39 68.57
475381.01 7865909.76 68.33
475385.81 7865909.9 68.38
475389.91 7865908.61 68.4
475381.36 7865907.83 68.38
475389.59 7865907.82 68.44
475386 7865906.91 68.44
475375.27 7865908.16 68.42
475389.55 7865907.95 68.42
475379.15 7865907.96 68.34
475375.85 7865907.96 68.4
475375.12 7865909.17 68.38
475386.42 7865907.22 68.42
475380.63 7865909.34 68.35
475376.68 7865909.69 68.36
475377.69 7865907.81 68.4
475377.83 7865908.67 68.37
475375.74 7865909.54 68.41
475390.43 7865908.65 68.39
475381.32 7865909.46 68.37
475377.35 7865909.47 68.39
475380.43 7865906.26 68.37
475379.18 7865908.43 68.37
475389.67 7865907.23 68.43
475385.48 7865907.39 68.44
475378.31 7865908.57 68.38
475384.51 7865906.73 68.43
475387.21 7865909.94 68.36
475380.84 7865908.14 68.37
475381.83 7865909.32 68.39
475388.28 7865909.53 68.34
475375.55 7865908.62 68.42
475385.57 7865908.88 68.4
475389.03 7865909.36 68.37
475375.62 7865908.28 68.43
475382.76 7865908.28 68.38
475383.46 7865907.41 68.42
