349036.16 5805964.08 118.7
349036.1 5805964.95 118.83
349036.05 5805965.88 118.73
349035.6 5805965.7 119.22
349035.67 5805964.92 118.79
349035.72 5805964.03 118.74
349035.83 5805962.23 118.79
349035.88 5805961.3 118.91
349035.94 5805960.41 118.87
349036 5805958.15 120.78
349036.06 5805957.25 120.75
349036.11 5805956.29 120.96
349036.16 5805955.39 120.9
349036.27 5805954.97 118.79
349036.33 5805954.05 118.81
349036.38 5805953.12 118.85
349036.44 5805952.2 118.85
349036.5 5805951.28 118.84
349036.55 5805950.35 118.87
349036.61 5805949.45 118.7
349036.67 5805948.5 118.79
349036.73 5805947.6 118.69
349036.78 5805946.66 118.7
349036.84 5805945.73 118.65
349036.9 5805944.79 118.68
349036.96 5805943.86 118.61
349037.01 5805942.91 118.62
349037.05 5805941.81 119.33
349037.13 5805941.03 118.57
349037.19 5805940.09 118.55
349037.25 5805939.13 118.57
349037.31 5805938.18 118.53
349037.36 5805937.23 118.51
349037.42 5805936.28 118.45
349037.48 5805935.32 118.48
349037.54 5805934.37 118.43
349037.6 5805933.4 118.42
349037.66 5805932.46 118.33
349036.74 5805931.69 118.33
349036.68 5805932.65 118.35
349036.62 5805933.6 118.48
349036.56 5805934.58 118.39
349036.5 5805935.53 118.48
349036.43 5805936.5 118.47
349036.37 5805937.45 118.52
349036.31 5805938.42 118.49
349036.25 5805939.37 118.54
349036.19 5805940.32 118.54
349036.08 5805940.81 120.58
349036.07 5805942.22 118.59
349035.92 5805943.76 120.14
349035.85 5805944.69 120.23
349035.8 5805945.66 120.09
349035.74 5805946.57 120.22
349035.71 5805947.85 118.78
349035.65 5805948.77 118.85
349035.6 5805949.72 118.76
349035.54 5805950.65 118.8
349035.48 5805951.57 118.83
349035.42 5805952.49 118.86
349035.36 5805953.43 118.86
349035.31 5805954.34 118.89
349035.25 5805955.26 118.85
349035.19 5805956.18 118.89
349035.14 5805957.11 118.84
349035.08 5805958.01 118.88
349034.95 5805958.27 121.67
349034.89 5805959.17 121.7
349034.83 5805960.08 121.7
349034.77 5805960.95 121.86
349034.72 5805961.86 121.81
349034.66 5805962.75 121.86
349034.68 5805964.4 118.73
349034.63 5805965.28 118.81
349034.57 5805966.2 118.71
349034.16 5805966.26 118.72
349034.22 5805965.35 118.7
349034.27 5805964.44 118.77
349034.25 5805962.78 121.93
349034.3 5805961.87 122.02
349034.36 5805960.99 121.94
349034.41 5805960.08 121.98
349034.47 5805959.19 121.91
349034.52 5805958.3 121.86
349034.58 5805957.4 121.79
349034.63 5805956.49 121.84
349034.69 5805955.61 121.72
349034.75 5805954.68 121.76
349034.8 5805953.77 121.73
349034.93 5805953.53 118.88
349034.99 5805952.6 118.86
349035.05 5805951.68 118.88
349035.1 5805950.75 118.89
349035.16 5805949.81 118.9
349035.22 5805948.89 118.87
349035.27 5805947.96 118.88
349035.33 5805947.03 118.83
349035.39 5805946.12 118.73
349035.45 5805945.2 118.66
349035.51 5805944.24 118.69
349035.53 5805943 120.04
349035.58 5805942.03 120.17
349035.63 5805941 120.5
349035.69 5805940.07 120.43
349035.76 5805939.23 119.96
349035.86 5805938.57 118.61
349035.92 5805937.64 118.53
349035.97 5805936.67 118.56
349036.04 5805935.73 118.48
349036.09 5805934.77 118.47
349036.15 5805933.82 118.39
349036.21 5805932.84 118.42
349036.27 5805931.9 118.33
349035.12 5805932.5 120.51
349035.07 5805933.61 119.89
349035.05 5805934.87 118.59
349034.94 5805935.45 120.29
349034.89 5805936.44 120.2
349034.87 5805937.75 118.63
349034.77 5805938.42 119.9
349034.72 5805939.43 119.72
349034.64 5805940.22 120.43
349034.57 5805941.08 120.82
349034.57 5805942.54 118.6
349034.48 5805943.22 119.78
349034.45 5805944.42 118.63
349034.39 5805945.36 118.7
349034.33 5805946.26 118.88
349034.27 5805947.21 118.78
349034.18 5805947.88 119.99
349034.12 5805948.78 120.16
349034.1 5805950.03 118.76
349034 5805950.6 120.36
349033.94 5805951.53 120.33
349033.9 5805952.65 119.51
349033.79 5805953.06 121.74
349033.72 5805953.88 122.14
349033.66 5805954.79 122.16
349033.6 5805955.7 122.23
349033.55 5805956.63 122.14
349033.49 5805957.5 122.29
349033.43 5805958.42 122.3
349033.37 5805959.32 122.36
349033.32 5805960.21 122.38
349033.26 5805961.12 122.38
349033.21 5805962.06 122.22
349033.16 5805963.06 121.75
349033.18 5805964.69 118.77
349033.13 5805965.58 118.76
349032.7 5805965.62 118.77
349032.76 5805964.74 118.73
349032.73 5805963.07 121.9
349032.78 5805962.1 122.27
349032.82 5805961.13 122.6
349032.88 5805960.23 122.56
349032.93 5805959.34 122.54
349032.99 5805958.45 122.49
349033.05 5805957.54 122.49
349033.1 5805956.65 122.42
349033.16 5805955.75 122.34
349033.22 5805954.86 122.28
349033.27 5805953.96 122.22
349033.34 5805953.15 121.76
349033.45 5805952.74 119.59
349033.49 5805951.59 120.57
349033.54 5805950.67 120.5
349033.62 5805949.92 119.79
349033.66 5805948.84 120.41
349033.72 5805947.93 120.3
349033.78 5805947.04 120.15
349033.86 5805946.33 119.15
349033.93 5805945.49 118.72
349033.99 5805944.55 118.74
349034.03 5805943.49 119.25
349034.11 5805942.71 118.52
349034.17 5805941.76 118.55
349034.17 5805940.38 120.45
349034.24 5805939.49 120.18
349034.34 5805938.88 118.65
349034.4 5805937.94 118.63
349034.42 5805936.7 119.89
349034.48 5805935.7 120
349034.57 5805935.07 118.58
349034.63 5805934.09 118.66
349034.64 5805932.69 120.54
349034.71 5805931.87 119.95
349033.6 5805932.04 120.62
349033.51 5805932.83 121.43
349033.44 5805933.71 121.81
349033.47 5805935.42 118.5
349033.41 5805936.36 118.57
349033.35 5805937.33 118.55
349033.29 5805938.27 118.62
349033.23 5805939.23 118.62
349033.16 5805940.17 118.69
349033.11 5805941.14 118.61
349033.05 5805942.08 118.68
349032.99 5805943.05 118.59
349032.93 5805943.98 118.64
349032.87 5805944.92 118.7
349032.81 5805945.85 118.73
349032.67 5805946.07 121.86
349032.61 5805947.01 121.85
349032.55 5805947.95 121.83
349032.49 5805948.86 121.93
349032.43 5805949.8 121.93
349032.37 5805950.7 122.01
349032.32 5805951.63 122
349032.26 5805952.55 122.06
349032.2 5805953.46 122.05
349032.13 5805954.33 122.27
349032.07 5805955.19 122.52
349032.01 5805956.03 122.85
349031.95 5805956.94 122.86
349031.89 5805957.84 122.89
349031.83 5805958.73 122.99
349031.77 5805959.64 122.97
349031.72 5805960.58 122.84
349031.68 5805961.58 122.41
349031.63 5805962.56 122.06
349031.64 5805964.07 119.53
349031.6 5805965.14 118.81
349031.54 5805966.05 118.75
349031.12 5805966.01 119.82
349031.2 5805965.4 118.8
349031.26 5805964.52 118.78
349031.23 5805962.8 122.04
349031.28 5805961.82 122.41
349031.32 5805960.87 122.8
349031.37 5805959.84 123.15
349031.42 5805958.95 123.19
349031.48 5805958.11 123.05
349031.54 5805957.16 123.05
349031.6 5805956.28 122.97
349031.66 5805955.45 122.65
349031.72 5805954.6 122.31
349031.78 5805953.7 122.32
349031.84 5805952.81 122.21
349031.89 5805951.87 122.24
349031.95 5805950.95 122.25
349032.01 5805950.05 122.19
349032.07 5805949.12 122.17
349032.12 5805948.2 122.17
349032.18 5805947.28 122.1
349032.24 5805946.36 122.03
349032.38 5805946.16 118.86
349032.44 5805945.25 118.74
349032.5 5805944.31 118.67
349032.56 5805943.39 118.64
349032.62 5805942.46 118.57
349032.68 5805941.49 118.61
349032.73 5805940.56 118.57
349032.79 5805939.6 118.63
349032.85 5805938.65 118.53
349032.91 5805937.71 118.54
349032.97 5805936.77 118.48
349033.03 5805935.79 118.5
349033.09 5805934.84 118.47
349033.07 5805933.19 121.59
349033.15 5805932.39 120.82
349033.24 5805931.7 119.54
349032.05 5805932.83 118.48
349031.99 5805933.8 118.51
349031.93 5805934.76 118.57
349031.87 5805935.72 118.53
349031.81 5805936.68 118.61
349031.75 5805937.65 118.55
349031.69 5805938.59 118.63
349031.63 5805939.58 118.57
349031.57 5805940.5 118.66
349031.51 5805941.47 118.61
349031.45 5805942.4 118.71
349031.39 5805943.36 118.67
349031.33 5805944.29 118.7
349031.27 5805945.25 118.67
349031.21 5805946.17 118.76
349031.07 5805946.35 122.05
349031 5805947.21 122.41
349030.94 5805948.11 122.53
349030.88 5805949.01 122.66
349030.82 5805949.96 122.6
349030.76 5805950.86 122.72
349030.7 5805951.77 122.75
349030.64 5805952.69 122.79
349030.58 5805953.62 122.73
349030.53 5805954.52 122.8
349030.47 5805955.44 122.81
349030.4 5805956.3 123.05
349030.34 5805957.09 123.54
349030.28 5805958.01 123.51
349030.22 5805958.94 123.42
349030.17 5805959.84 123.4
349030.13 5805960.92 122.7
349030.08 5805961.91 122.3
349030.04 5805962.88 121.96
349030.06 5805964.54 118.82
349030 5805965.44 118.79
349029.92 5805966.03 120.04
349029.67 5805965.83 118.77
349029.72 5805964.94 118.79
349029.7 5805963.34 121.74
349029.74 5805962.35 122.15
349029.79 5805961.35 122.6
349029.83 5805960.3 123.22
349029.88 5805959.4 123.24
349029.94 5805958.49 123.27
349029.99 5805957.58 123.32
349030.05 5805956.68 123.29
349030.11 5805955.84 123.03
349030.16 5805954.93 123.06
349030.22 5805954.03 122.96
349030.28 5805953.13 122.93
349030.34 5805952.24 122.83
349030.39 5805951.32 122.84
349030.45 5805950.41 122.78
349030.51 5805949.5 122.75
349030.57 5805948.58 122.69
349030.63 5805947.7 122.53
349030.69 5805946.87 122.13
349030.76 5805946 121.83
349030.9 5805945.8 118.67
349030.95 5805944.84 118.77
349031.01 5805943.93 118.61
349031.07 5805942.99 118.65
349031.13 5805942.07 118.57
349031.19 5805941.11 118.61
349031.25 5805940.17 118.56
349031.3 5805939.22 118.6
349031.36 5805938.28 118.51
349031.42 5805937.33 118.54
349031.48 5805936.39 118.47
349031.54 5805935.43 118.48
349031.6 5805934.48 118.43
349031.66 5805933.52 118.43
349031.7 5805932.38 119.25
349030.54 5805931.8 120.94
349030.48 5805932.75 121.03
349030.49 5805934.29 118.47
349030.43 5805935.25 118.51
349030.37 5805936.21 118.52
349030.3 5805937.16 118.54
349030.25 5805938.13 118.5
349030.18 5805939.08 118.58
349030.12 5805940.04 118.53
349030.06 5805940.97 118.65
349030 5805941.93 118.64
349029.94 5805942.87 118.66
349029.88 5805943.81 118.68
349029.82 5805944.76 118.69
349029.72 5805945.31 120.38
349029.63 5805945.92 121.78
349029.56 5805946.78 122.18
349029.49 5805947.63 122.5
349029.42 5805948.49 122.84
349029.35 5805949.33 123.24
349029.29 5805950.24 123.29
349029.23 5805951.15 123.36
349029.18 5805952.08 123.35
349029.12 5805953.03 123.21
349029.07 5805954 123
349029.01 5805954.94 122.94
349028.96 5805955.85 122.9
349028.9 5805956.76 122.91
349028.84 5805957.7 122.84
349028.79 5805958.6 122.83
349028.74 5805959.54 122.69
349028.68 5805960.45 122.7
349028.63 5805961.39 122.52
349028.58 5805962.37 122.16
349028.53 5805963.38 121.72
349028.55 5805964.97 118.82
349028.5 5805965.88 118.75
349028.08 5805966.14 118.83
349028.14 5805965.27 118.77
349028.12 5805963.66 121.81
349028.17 5805962.7 122.03
349028.21 5805961.7 122.49
349028.26 5805960.79 122.59
349028.32 5805959.88 122.58
349028.37 5805958.98 122.61
349028.42 5805958.05 122.75
349028.48 5805957.15 122.67
349028.53 5805956.22 122.84
349028.59 5805955.33 122.74
349028.64 5805954.38 122.85
349028.7 5805953.45 123
349028.74 5805952.41 123.51
349028.8 5805951.5 123.45
349028.85 5805950.59 123.45
349028.91 5805949.7 123.3
349028.98 5805948.85 122.95
349029.04 5805948.02 122.59
349029.11 5805947.16 122.27
349029.18 5805946.31 121.91
349029.27 5805945.7 120.53
349029.32 5805944.74 120.62
349029.43 5805944.23 118.71
349029.49 5805943.33 118.6
349029.55 5805942.38 118.61
349029.61 5805941.43 118.57
349029.66 5805940.49 118.61
349029.72 5805939.55 118.57
349029.78 5805938.59 118.55
349029.84 5805937.66 118.49
349029.9 5805936.7 118.52
349029.96 5805935.75 118.42
349030.02 5805934.79 118.5
349030.02 5805933.34 120.68
349030.07 5805932.31 120.92
349029.06 5805932.48 121.03
349029.06 5805934.03 118.47
349029 5805934.99 118.48
349028.94 5805935.95 118.49
349028.88 5805936.92 118.51
349028.82 5805937.86 118.57
349028.76 5805938.83 118.53
349028.7 5805939.77 118.63
349028.64 5805940.74 118.53
349028.57 5805941.66 118.69
349028.52 5805942.64 118.58
349028.45 5805943.56 118.7
349028.4 5805944.52 118.64
349028.29 5805945.02 120.56
349028.2 5805945.71 121.65
349028.13 5805946.54 122.13
349028.06 5805947.42 122.37
349027.99 5805948.25 122.79
349027.93 5805949.13 123.06
349027.87 5805950.04 123.13
349027.81 5805950.98 123.06
349027.75 5805951.91 123.06
349027.7 5805952.85 122.96
349027.64 5805953.79 122.85
349027.6 5805954.83 122.39
349027.54 5805955.77 122.27
349027.48 5805956.69 122.23
349027.42 5805957.59 122.31
349027.37 5805958.52 122.21
349027.31 5805959.42 122.22
349027.26 5805960.36 122.08
349027.2 5805961.26 122.08
349027.14 5805962.16 122.09
349027.09 5805963.12 121.82
349027.11 5805964.75 118.82
349027.06 5805965.63 118.87
349026.6 5805965.6 118.87
349026.65 5805964.72 118.84
349026.63 5805963.1 121.87
349026.68 5805962.2 121.91
349026.7 5805960.91 123.55
349026.75 5805960.04 123.48
349026.85 5805959.48 122.04
349026.9 5805958.57 122.05
349026.96 5805957.65 122.06
349027.01 5805956.76 122.08
349027.07 5805955.83 122.16
349027.11 5805954.83 122.45
349027.16 5805953.85 122.83
349027.22 5805952.91 122.82
349027.27 5805951.99 122.89
349027.33 5805951.06 122.92
349027.38 5805950.12 123
349027.44 5805949.22 122.96
349027.5 5805948.34 122.73
349027.57 5805947.5 122.35
349027.63 5805946.65 122.06
349027.7 5805945.79 121.7
349027.81 5805945.37 119.49
349027.89 5805944.62 118.67
349027.95 5805943.67 118.68
349028.01 5805942.75 118.61
349028.07 5805941.81 118.65
349028.13 5805940.88 118.56
349028.18 5805939.93 118.56
349028.24 5805939 118.51
349028.3 5805938.03 118.55
349028.36 5805937.09 118.48
349028.42 5805936.14 118.5
349028.48 5805935.19 118.45
349028.54 5805934.22 118.46
349028.6 5805933.28 118.39
349028.61 5805931.89 120.32
349027.64 5805931.96 120.22
349027.62 5805933.32 118.49
349027.56 5805934.28 118.5
349027.5 5805935.26 118.44
349027.44 5805936.21 118.51
349027.38 5805937.18 118.47
349027.32 5805938.12 118.57
349027.26 5805939.09 118.53
349027.19 5805940 118.72
349027.14 5805940.99 118.54
349027.08 5805941.93 118.63
349027.02 5805942.89 118.58
349026.96 5805943.82 118.63
349026.9 5805944.77 118.65
349026.83 5805945.65 118.9
349026.7 5805945.92 121.8
349026.63 5805946.78 122.19
349026.56 5805947.65 122.44
349026.5 5805948.53 122.64
349026.44 5805949.5 122.52
349026.38 5805950.41 122.61
349026.33 5805951.35 122.52
349026.27 5805952.28 122.51
349026.21 5805953.21 122.47
349026.16 5805954.14 122.43
349026.1 5805955.1 122.26
349026.05 5805956.1 121.9
349026 5805957.06 121.66
349026.01 5805958.57 119.2
349025.89 5805958.92 121.55
349025.89 5805960.38 119.19
349025.84 5805961.3 119.15
349025.72 5805961.66 121.43
349025.67 5805962.59 121.3
349025.65 5805963.87 119.72
349025.62 5805964.97 118.84
349025.56 5805965.86 118.87
349025.13 5805965.99 119.34
349025.19 5805965.17 119.1
349025.25 5805964.29 119.09
349025.25 5805962.82 121.44
349025.31 5805961.99 121.2
349025.42 5805961.62 119.01
349025.47 5805960.71 118.98
349025.51 5805959.68 119.58
349025.58 5805958.94 118.9
349025.64 5805958.01 118.95
349025.62 5805956.45 121.79
349025.67 5805955.45 122.16
349025.73 5805954.54 122.14
349025.78 5805953.6 122.24
349025.83 5805952.69 122.25
349025.89 5805951.75 122.32
349025.95 5805950.84 122.31
349026 5805949.9 122.39
349026.06 5805948.96 122.43
349026.11 5805948.04 122.44
349026.17 5805947.16 122.22
349026.24 5805946.29 121.92
349026.37 5805945.99 119.18
349026.44 5805945.18 118.65
349026.5 5805944.25 118.59
349026.55 5805943.31 118.62
349026.61 5805942.38 118.56
349026.67 5805941.41 118.62
349026.73 5805940.49 118.54
349026.79 5805939.54 118.54
349026.85 5805938.59 118.5
349026.9 5805937.63 118.59
349026.97 5805936.71 118.45
349027.02 5805935.73 118.48
349027.08 5805934.79 118.43
349027.14 5805933.83 118.45
349027.13 5805932.27 121.06
349026.08 5805932.16 120.97
349026.03 5805933.24 120.53
349026.03 5805934.65 118.51
349025.96 5805935.6 118.56
349025.9 5805936.56 118.61
349025.84 5805937.49 118.75
349025.76 5805938.29 119.44
349025.72 5805939.4 118.8
349025.65 5805940.27 119.15
349025.6 5805941.35 118.57
349025.54 5805942.31 118.57
349025.48 5805943.25 118.63
349025.42 5805944.19 118.62
349025.36 5805945.1 118.82
349025.28 5805945.84 119.68
349025.16 5805946.28 121.88
349025.1 5805947.17 122.07
349025.04 5805948.11 122.06
349024.98 5805949.04 122.07
349024.93 5805949.99 121.98
349024.87 5805950.92 121.98
349024.81 5805951.86 121.92
349024.75 5805952.78 121.93
349024.7 5805953.74 121.77
349024.64 5805954.65 121.81
349024.59 5805955.59 121.73
349024.53 5805956.53 121.64
349024.48 5805957.5 121.36
349024.42 5805958.41 121.38
349024.36 5805959.31 121.45
349024.31 5805960.22 121.41
349024.25 5805961.13 121.39
349024.19 5805961.99 121.55
349024.2 5805963.52 118.91
349024.15 5805964.43 118.92
349024.08 5805965.28 119.09
349024.03 5805966.13 119.23
349023.69 5805965.57 118.92
349023.75 5805964.67 118.93
349023.8 5805963.78 118.91
349023.86 5805962.88 118.95
349023.85 5805961.37 121.48
349023.9 5805960.48 121.49
349023.96 5805959.58 121.47
349024.02 5805958.67 121.48
349024.07 5805957.79 121.38
349024.13 5805956.86 121.48
349024.19 5805955.97 121.39
349024.29 5805955.56 119.29
349024.35 5805954.65 119.24
349024.34 5805953.14 121.76
349024.4 5805952.25 121.7
349024.46 5805951.3 121.74
349024.51 5805950.34 121.8
349024.57 5805949.45 121.84
349024.63 5805948.51 121.84
349024.68 5805947.54 121.9
349024.74 5805946.62 121.91
349024.88 5805946.4 118.77
349024.92 5805945.36 119.21
349025 5805944.56 118.64
349025.06 5805943.63 118.54
349025.11 5805942.68 118.57
349025.11 5805941.18 121.07
349025.16 5805940.21 121.13
349025.22 5805939.26 121.13
349025.28 5805938.32 121.14
349025.34 5805937.37 121.07
349025.52 5805935.99 118.78
349025.58 5805935.09 118.48
349025.64 5805934.12 118.49
349025.64 5805932.64 120.86
349025.72 5805931.83 120.13
349024.66 5805932.32 118.4
349024.59 5805933.27 118.54
349024.46 5805933.65 121.15
349024.4 5805934.6 121.2
349024.34 5805935.57 121.2
349024.28 5805936.51 121.27
349024.22 5805937.46 121.28
349024.16 5805938.42 121.34
349024.1 5805939.38 121.3
349024.04 5805940.32 121.32
349023.98 5805941.29 121.32
349023.99 5805942.84 118.67
349023.93 5805943.79 118.61
349023.87 5805944.73 118.67
349023.81 5805945.68 118.64
349023.75 5805946.61 118.68
349023.69 5805947.57 118.64
349023.63 5805948.49 118.72
349023.57 5805949.41 118.72
349023.51 5805950.36 118.71
349023.45 5805951.3 118.64
349023.39 5805952.18 118.8
349023.33 5805953.13 118.81
349023.27 5805954.03 118.86
349023.22 5805954.96 118.8
349023.13 5805955.59 120.1
349023.04 5805956.21 121.35
349022.98 5805957.1 121.39
349022.92 5805958.03 121.37
349022.86 5805958.92 121.44
349022.81 5805959.83 121.39
349022.75 5805960.73 121.47
349022.69 5805961.63 121.45
349022.68 5805962.93 119.75
349022.62 5805963.81 119.88
349022.55 5805964.61 120.25
349022.49 5805965.48 120.37
349022.07 5805965.69 120.45
349022.12 5805964.78 120.59
349022.19 5805964.04 120
349022.25 5805963.11 120.1
349022.26 5805961.88 121.58
349022.32 5805961.02 121.43
349022.38 5805960.12 121.41
349022.43 5805959.23 121.44
349022.49 5805958.33 121.39
349022.55 5805957.43 121.38
349022.6 5805956.51 121.47
349022.72 5805956.2 118.94
349022.78 5805955.31 118.85
349022.83 5805954.42 118.77
349022.89 5805953.5 118.77
349022.95 5805952.6 118.71
349023 5805951.67 118.74
349023.06 5805950.77 118.68
349023.12 5805949.84 118.68
349023.18 5805948.92 118.66
349023.23 5805947.99 118.65
349023.29 5805947.08 118.62
349023.35 5805946.14 118.62
349023.41 5805945.22 118.57
349023.46 5805944.27 118.62
349023.52 5805943.35 118.56
349023.58 5805942.4 118.61
349023.57 5805940.82 121.44
349023.62 5805939.88 121.43
349023.68 5805938.93 121.4
349023.74 5805937.99 121.38
349023.8 5805937.05 121.36
349023.86 5805936.1 121.36
349023.92 5805935.16 121.29
349023.98 5805934.2 121.3
349024.1 5805933.81 118.78
349024.17 5805932.9 118.52
349024.23 5805931.95 118.48
349023.04 5805932.74 121.63
349022.98 5805933.74 121.48
349022.92 5805934.68 121.56
349022.85 5805935.66 121.56
349022.79 5805936.61 121.6
349022.73 5805937.56 121.59
349022.67 5805938.51 121.68
349022.61 5805939.46 121.68
349022.55 5805940.4 121.71
349022.49 5805941.37 121.68
349022.51 5805943.01 118.64
349022.45 5805943.96 118.6
349022.39 5805944.92 118.6
349022.33 5805945.87 118.56
349022.27 5805946.77 118.69
349022.21 5805947.73 118.64
349022.15 5805948.65 118.71
349022.09 5805949.59 118.66
349022.03 5805950.51 118.75
349021.97 5805951.45 118.7
349021.92 5805952.37 118.72
349021.86 5805953.29 118.76
349021.8 5805954.2 118.81
349021.74 5805955.12 118.82
349021.64 5805955.69 120.32
349021.56 5805956.37 121.33
349021.5 5805957.26 121.38
349021.44 5805958.17 121.44
349021.38 5805959.07 121.49
349021.33 5805959.99 121.38
349021.27 5805960.89 121.42
349021.21 5805961.78 121.5
349021.22 5805963.28 118.95
349021.16 5805964.19 118.92
349021.11 5805965.08 118.94
349021.05 5805965.98 118.88
349020.68 5805965.56 118.94
349020.73 5805964.68 118.91
349020.79 5805963.77 118.98
349020.84 5805962.88 118.93
349020.83 5805961.36 121.56
349020.89 5805960.49 121.49
349020.94 5805959.58 121.52
349021 5805958.68 121.48
349021.06 5805957.79 121.49
349021.11 5805956.89 121.42
349021.17 5805956 121.34
349021.29 5805955.66 118.93
349021.35 5805954.75 118.9
349021.35 5805953.38 120.86
349021.46 5805952.96 118.76
349021.52 5805952.03 118.73
349021.58 5805951.11 118.76
349021.63 5805950.21 118.7
349021.69 5805949.27 118.7
349021.75 5805948.36 118.64
349021.81 5805947.44 118.65
349021.87 5805946.5 118.61
349021.84 5805944.86 121.73
349021.98 5805944.65 118.59
349022.04 5805943.69 118.62
349022.1 5805942.77 118.56
349022.08 5805941.14 121.6
349022.14 5805940.18 121.61
349022.19 5805939.22 121.67
349022.25 5805938.27 121.73
349022.31 5805937.32 121.71
349022.37 5805936.37 121.7
349022.43 5805935.43 121.68
349022.49 5805934.45 121.74
349022.55 5805933.51 121.68
349021.51 5805931.73 123.57
349021.51 5805933.23 121.2
349021.44 5805934.14 121.45
349021.38 5805935.1 121.45
349021.32 5805936.07 121.42
349021.26 5805937.03 121.44
349021.2 5805938 121.38
349021.14 5805938.95 121.4
349021.08 5805939.92 121.33
349021.02 5805940.87 121.34
349020.96 5805941.81 121.37
349020.94 5805943.14 119.72
349020.83 5805943.58 121.95
349020.77 5805944.53 121.9
349020.7 5805945.38 122.27
349020.68 5805946.64 120.91
349020.61 5805947.52 121.12
349020.57 5805948.56 120.65
349020.5 5805949.46 120.86
349020.49 5805950.84 118.87
349020.42 5805951.65 119.39
349020.32 5805952.18 121.1
349020.26 5805953.06 121.3
349020.21 5805954.05 120.98
349020.2 5805955.48 118.81
349020.09 5805955.85 121.12
349020.02 5805956.71 121.36
349019.97 5805957.62 121.39
349019.97 5805959.12 118.92
349019.9 5805959.85 119.67
349019.84 5805960.77 119.62
349019.8 5805961.85 118.85
349019.75 5805962.75 118.85
349019.69 5805963.63 118.96
349019.63 5805964.55 118.88
349019.57 5805965.43 118.95
349019.49 5805966.04 120.12
349019.22 5805965.95 118.9
349019.28 5805965.07 118.92
349019.31 5805963.95 119.9
349019.39 5805963.28 118.92
349019.44 5805962.41 118.86
349019.46 5805961.15 120.4
349019.52 5805960.32 120.09
349019.6 5805959.62 119.31
349019.66 5805958.78 119.04
349019.71 5805957.86 119.07
349019.75 5805956.78 119.84
349019.8 5805955.81 120.08
349019.89 5805955.19 118.89
349019.89 5805953.75 121.14
349019.94 5805952.83 121.14
349020.01 5805952.01 120.75
349020.09 5805951.36 119.59
349020.17 5805950.6 118.92
349020.19 5805949.31 120.48
349020.23 5805948.3 120.88
349020.28 5805947.31 121.11
349020.31 5805946.16 122.14
349020.37 5805945.2 122.21
349020.43 5805944.31 122.04
349020.5 5805943.52 121.44
349020.61 5805942.94 119.76
349020.62 5805941.68 121.26
349020.68 5805940.7 121.31
349020.74 5805939.76 121.3
349020.8 5805938.84 121.33
349020.86 5805937.86 121.33
349020.91 5805936.91 121.36
349020.97 5805935.96 121.35
349021.03 5805934.99 121.37
349021.09 5805934.05 121.37
349021.15 5805933.11 121.25
349020.01 5805931.89 123.77
349020.05 5805933.69 119.86
349019.96 5805934.41 121.13
349019.9 5805935.37 121.14
349019.84 5805936.33 121.15
349019.78 5805937.28 121.15
349019.72 5805938.25 121.1
349019.65 5805939.19 121.17
349019.6 5805940.17 121.04
349019.54 5805941.14 120.99
349019.51 5805942.38 119.68
349019.41 5805942.9 121.54
349019.35 5805943.87 121.44
349019.27 5805944.63 122.24
349019.19 5805945.42 122.85
349019.17 5805946.66 121.57
349019.12 5805947.71 121.07
349019.08 5805948.82 120.27
349019.03 5805949.77 120.22
349018.95 5805951.96 118.76
349018.84 5805952.43 120.73
349018.76 5805953.22 121.29
349018.72 5805954.22 120.92
349018.71 5805955.64 118.84
349018.65 5805956.53 118.91
349018.59 5805957.45 118.88
349018.54 5805958.37 118.88
349018.48 5805959.28 118.84
349018.42 5805960.17 118.9
349018.36 5805961.08 118.93
349018.31 5805961.99 118.87
349018.25 5805962.9 118.83
349018.19 5805963.79 118.9
349018.14 5805964.69 118.85
349018.08 5805965.57 118.92
349017.65 5805965.85 120.44
349017.7 5805964.99 120.35
349017.77 5805964.19 119.97
349017.83 5805963.35 119.78
349017.9 5805962.65 118.97
349017.96 5805961.77 118.89
349017.99 5805960.66 119.79
349018.07 5805959.97 118.88
349018.13 5805959.06 118.88
349018.18 5805958.17 118.85
349018.24 5805957.25 118.89
349018.3 5805956.35 118.83
349018.35 5805955.44 118.85
349018.35 5805954 121.07
349018.43 5805953.25 120.38
349018.52 5805952.67 118.94
349018.58 5805951.77 118.82
349018.64 5805950.87 118.73
349018.7 5805949.95 118.72
349018.68 5805948.39 121.44
349018.75 5805947.5 121.27
349018.79 5805946.45 121.83
349018.82 5805945.31 122.66
349018.89 5805944.43 122.46
349018.97 5805943.71 121.54
349019.06 5805943.07 120.2
349019.12 5805942.16 120.06
349019.22 5805941.55 118.64
349019.28 5805940.59 118.67
349019.34 5805939.65 118.61
349019.39 5805938.67 118.81
349019.45 5805937.75 118.59
349019.51 5805936.79 118.62
349019.51 5805935.29 121.08
349019.56 5805934.31 121.17
349019.69 5805933.92 118.6
349019.75 5805932.97 118.58
349018.6 5805932.36 120.52
349018.54 5805933.33 120.5
349018.48 5805934.31 120.46
349018.47 5805935.7 118.51
349018.4 5805936.59 118.82
349018.31 5805937.3 119.92
349018.28 5805938.54 118.7
349018.21 5805939.4 119.12
349018.12 5805940.1 120.23
349018.11 5805941.42 118.59
349018.04 5805942.36 118.61
349017.99 5805943.31 118.59
349017.85 5805943.62 121.4
349017.77 5805944.31 122.47
349017.7 5805945.2 122.67
349017.66 5805946.31 121.94
349017.61 5805947.3 121.69
349017.55 5805948.19 121.87
349017.57 5805949.84 118.77
349017.51 5805950.77 118.75
349017.45 5805951.68 118.82
349017.39 5805952.58 118.94
349017.33 5805953.51 118.88
349017.27 5805954.44 118.85
349017.21 5805955.37 118.85
349017.16 5805956.28 118.86
349017.06 5805956.84 120.32
349017 5805957.74 120.41
349016.94 5805958.65 120.38
349016.84 5805960.6 119.83
349016.81 5805961.72 118.89
349016.75 5805962.6 118.96
349016.67 5805963.24 120.06
349016.61 5805964.16 119.96
349016.55 5805964.95 120.37
349016.43 5805962 119.01
349016.48 5805961.07 119.2
349016.56 5805958.98 120.4
349016.61 5805958.07 120.41
349016.67 5805957.17 120.34
349016.75 5805956.5 119.37
349016.82 5805955.72 118.84
349016.88 5805954.78 118.89
349016.94 5805953.89 118.85
349016.95 5805952.55 120.64
349017.05 5805952.04 118.82
349017.11 5805951.12 118.87
349017.16 5805950.21 118.82
349017.22 5805949.27 118.84
349017.2 5805947.62 122.02
349017.27 5805946.8 121.56
349017.29 5805945.58 122.74
349017.35 5805944.69 122.62
349017.44 5805944.02 121.45
349017.57 5805943.72 118.63
349017.63 5805942.8 118.58
349017.69 5805941.85 118.64
349017.71 5805940.55 120.16
349017.78 5805939.71 119.72
349017.86 5805939 118.68
349017.9 5805937.76 119.79
349017.97 5805937.03 118.97
349018.04 5805936.17 118.55
349018.1 5805935.08 118.96
349018.11 5805933.79 120.49
349018.17 5805932.81 120.58
349017.16 5805932.41 120.68
349017.1 5805933.41 120.51
349017.03 5805935.81 118.58
349016.97 5805936.75 118.55
349016.9 5805937.73 118.58
349016.84 5805938.71 118.54
349016.78 5805939.62 118.57
349016.72 5805940.61 118.55
349016.66 5805941.56 118.59
349016.6 5805942.52 118.54
349016.54 5805943.44 118.65
349016.48 5805944.4 118.66
349016.43 5805938.59 118.61
349016.49 5805937.64 118.55
349016.55 5805936.67 118.63
349016.55 5805935.28 120.55
349016.62 5805934.33 120.49
349016.67 5805933.35 120.55
349016.73 5805932.36 120.69
349016.49 5805963.94 118.94
349016.58 5805964.91 119.03
349016.67 5805965.83 118.99
349017.63 5805965.89 118.93
349017.54 5805964.91 118.89
349017.45 5805963.96 118.9
349017.36 5805963.01 118.9
349017.28 5805962.09 118.98
349017.29 5805961.38 120.03
349017.15 5805959.6 120.42
349017.07 5805958.67 120.44
349016.97 5805957.72 120.36
349016.76 5805956.45 118.89
349016.67 5805955.52 118.86
349016.59 5805954.6 118.87
349016.5 5805953.66 118.8
349016.58 5805953.17 120.66
349016.42 5805949.43 118.76
349016.5 5805950.35 118.76
349016.59 5805951.26 118.83
349016.67 5805952.16 118.81
349016.77 5805953.12 118.97
349016.85 5805954 118.84
349016.93 5805954.92 118.86
349017.02 5805955.84 118.83
349017.1 5805956.75 118.86
349017.33 5805958.04 120.42
349017.41 5805958.96 120.41
349017.51 5805959.93 120.6
349017.64 5805961.67 120.05
349017.63 5805962.35 118.95
349017.71 5805963.29 118.93
349017.81 5805964.23 118.99
349017.89 5805965.18 118.97
349017.98 5805966.12 118.99
349018.94 5805965.6 118.93
349018.85 5805964.64 118.85
349018.76 5805963.7 118.89
349018.67 5805962.75 118.85
349018.59 5805961.82 118.86
349018.51 5805960.9 119
349018.42 5805959.95 118.93
349018.33 5805959.01 118.84
349018.25 5805958.08 118.89
349018.16 5805957.14 118.85
349018.08 5805956.24 118.91
349017.99 5805955.29 118.84
349018.14 5805954.99 121.5
349018.07 5805954.12 121.7
349017.74 5805952.54 118.86
349017.65 5805951.61 118.77
349017.57 5805950.71 118.83
349017.47 5805949.77 118.73
349017.4 5805948.89 118.81
349017.57 5805948.65 121.66
349017.51 5805947.84 122.02
349017.39 5805946.82 121.51
349017.39 5805946.15 122.48
349017.22 5805945.03 121.5
349016.89 5805943.45 118.61
349016.8 5805942.54 118.53
349016.72 5805941.67 118.55
349016.64 5805940.77 118.54
349016.56 5805939.9 118.55
349016.48 5805939.02 118.55
349016.47 5805934.4 120.48
349016.42 5805934.91 119.07
349016.55 5805935.92 119.64
349016.56 5805936.59 118.85
349016.62 5805937.41 118.63
349016.7 5805938.26 118.55
349016.78 5805939.14 118.57
349016.86 5805940.01 118.55
349016.95 5805940.9 118.6
349017.03 5805941.78 118.57
349017.11 5805942.66 118.6
349017.19 5805943.54 118.59
349017.65 5805945.45 122.83
349017.7 5805946.24 122.47
349017.74 5805947.03 122.04
349017.8 5805947.86 121.72
349017.81 5805948.56 120.92
349017.7 5805948.96 118.76
349017.79 5805949.87 118.79
349017.87 5805950.76 118.74
349017.96 5805951.68 118.79
349018.21 5805953.03 120.67
349018.31 5805953.99 120.89
349018.37 5805954.84 120.62
349018.3 5805955.34 118.83
349018.39 5805956.27 118.82
349018.48 5805957.19 118.86
349018.56 5805958.1 118.82
349018.65 5805959.06 118.89
349018.73 5805959.97 118.85
349018.82 5805960.9 118.89
349018.91 5805961.84 118.87
349019 5805962.77 118.88
349019.08 5805963.71 118.89
349019.18 5805964.68 118.96
349019.26 5805965.6 118.92
349020.19 5805965.79 118.85
349020.11 5805964.88 118.98
349020.01 5805963.9 118.85
349019.93 5805962.96 118.88
349019.87 5805962.1 119.22
349019.83 5805961.28 119.74
349019.77 5805960.38 120.05
349019.72 5805959.55 120.36
349019.59 5805958.51 119.9
349019.53 5805957.64 120.27
349019.33 5805956.4 118.87
349019.24 5805955.49 118.82
349019.27 5805954.84 120.14
349019.23 5805954.05 120.68
349019.16 5805953.2 120.84
349018.89 5805951.76 118.73
349018.8 5805950.84 118.67
349018.72 5805949.94 118.7
349018.8 5805949.46 120.56
349018.79 5805948.75 121.38
349018.7 5805947.84 121.29
349018.66 5805947.03 121.73
349018.65 5805946.34 122.61
349018.6 5805945.54 122.95
349018.42 5805944.37 121.83
349018.05 5805942.71 118.58
349017.97 5805941.82 118.54
349017.89 5805940.94 118.59
349017.93 5805940.37 119.91
349017.73 5805939.18 118.6
349017.65 5805938.29 118.55
349017.57 5805937.42 118.57
349017.48 5805936.53 118.5
349017.44 5805935.78 118.97
349017.46 5805935.16 120.04
349017.41 5805934.4 120.43
349017.34 5805933.56 120.52
349017.26 5805932.67 120.42
349017.55 5805932.36 120.4
349017.65 5805933.27 120.6
349017.72 5805934.08 120.46
349017.79 5805934.92 120.38
349017.83 5805935.67 119.93
349017.79 5805936.21 118.56
349018.05 5805937.57 120.6
349017.96 5805937.96 118.65
349018.04 5805938.83 118.62
349018.22 5805939.97 119.73
349018.2 5805940.58 118.67
349018.29 5805941.47 118.66
349018.37 5805942.34 118.66
349018.73 5805943.98 121.83
349018.91 5805945.16 122.94
349018.96 5805945.93 122.57
349018.96 5805946.6 121.65
349019.04 5805947.49 121.55
349019.1 5805948.34 121.3
349019.12 5805949.06 120.57
349019.04 5805949.52 118.71
349019.13 5805950.44 118.74
349019.31 5805951.61 119.9
349019.48 5805952.73 120.84
349019.56 5805953.65 120.83
349019.64 5805954.53 120.73
349019.68 5805955.33 120.27
349019.78 5805956.28 120.37
349019.83 5805957.1 119.99
349019.86 5805957.9 119.43
349019.95 5805958.82 119.4
349020.01 5805959.67 119.09
349020.15 5805960.75 119.75
349020.22 5805961.65 119.61
349020.25 5805962.42 118.88
349020.34 5805963.36 118.92
349020.43 5805964.3 118.93
349020.52 5805965.25 118.95
349020.6 5805966.18 118.91
349021.56 5805966.29 118.94
349021.47 5805965.35 118.94
349021.39 5805964.41 118.97
349021.3 5805963.46 119.01
349021.21 5805962.51 118.95
349021.35 5805962.16 121.53
349021.26 5805961.21 121.5
349021.18 5805960.27 121.48
349021.09 5805959.34 121.46
349021 5805958.39 121.42
349020.91 5805957.45 121.37
349020.82 5805956.53 121.32
349020.52 5805955.02 118.86
349020.62 5805954.58 120.91
349020.57 5805953.75 121.27
349020.46 5805952.77 121.06
349020.25 5805951.53 119.62
349020.11 5805950.45 118.9
349020.16 5805949.89 120.43
349020.12 5805949.11 120.94
349020.04 5805948.22 121
349019.96 5805947.31 121.01
349019.93 5805946.57 121.65
349019.87 5805945.71 121.81
349019.76 5805944.76 121.56
349019.68 5805943.86 121.57
349019.36 5805942.32 118.86
349019.27 5805941.42 118.73
349019.31 5805940.84 120.07
349019.22 5805939.95 120.02
349019.13 5805939.06 119.94
349019.02 5805938.07 119.53
349018.99 5805937.34 120.11
349018.85 5805935.67 120.41
349018.78 5805934.8 120.42
349018.72 5805934 120.67
349018.63 5805933.11 120.51
349018.54 5805932.21 120.4
349018.66 5805931.89 122.62
349019.11 5805931.95 124.33
349019.02 5805932.32 122.37
349018.92 5805932.67 120.34
349019.02 5805933.59 120.55
349019.08 5805934.39 120.37
349019.15 5805935.24 120.32
349019.22 5805936.07 120.14
349019.17 5805936.57 118.69
349019.25 5805937.43 118.63
349019.33 5805938.31 118.67
349019.41 5805939.17 118.61
349019.49 5805940.07 118.66
349019.57 5805940.92 118.59
349019.85 5805942.34 120.82
349020 5805943.41 121.61
349020.08 5805944.3 121.66
349020.21 5805945.3 122.09
349020.27 5805946.13 121.86
349020.27 5805946.81 120.99
349020.37 5805947.74 121.1
349020.45 5805948.64 121.11
349020.5 5805949.45 120.72
349020.51 5805950.14 119.83
349020.5 5805950.8 118.78
349020.75 5805952.15 120.64
349020.88 5805953.17 121.17
349020.97 5805954.11 121.24
349021 5805954.87 120.58
349020.93 5805955.38 118.84
349021.24 5805956.9 121.41
349021.33 5805957.82 121.44
349021.41 5805958.75 121.47
349021.5 5805959.68 121.47
349021.59 5805960.61 121.49
349021.68 5805961.53 121.51
349021.77 5805962.49 121.53
349021.63 5805962.82 118.94
349021.72 5805963.76 118.96
349021.8 5805964.71 118.95
349021.89 5805965.65 118.98
349022.8 5805966.11 118.96
349022.71 5805965.16 118.92
349022.63 5805964.21 118.93
349022.54 5805963.26 118.91
349022.46 5805962.33 118.95
349022.59 5805961.96 121.48
349022.51 5805961.03 121.48
349022.41 5805960.07 121.38
349022.33 5805959.14 121.42
349022.24 5805958.2 121.35
349022.16 5805957.29 121.44
349021.85 5805955.77 118.84
349021.76 5805954.83 118.81
349021.67 5805953.89 118.71
349021.76 5805953.44 120.7
349021.5 5805952.05 118.7
349021.42 5805951.14 118.73
349021.33 5805950.22 118.66
349021.25 5805949.31 118.67
349021.16 5805948.39 118.65
349021.08 5805947.52 118.72
349021.18 5805947.09 120.74
349021.18 5805946.41 121.69
349021.12 5805945.59 121.99
349021.05 5805944.72 122.08
349020.9 5805943.64 121.29
349020.81 5805942.73 121.21
349020.73 5805941.84 121.19
349020.65 5805940.97 121.23
349020.57 5805940.08 121.19
349020.49 5805939.22 121.25
349020.41 5805938.34 121.27
349020.32 5805937.45 121.18
349020.24 5805936.58 121.12
349020.16 5805935.71 121.17
349020.08 5805934.84 121.11
349019.77 5805933.34 118.52
349019.7 5805932.5 118.61
349019.95 5805932.53 122.27
349020.05 5805932.17 124.28
349020.41 5805931.99 124.1
349020.44 5805932.7 123.5
349020.09 5805932.35 118.61
349020.16 5805933.2 118.54
349020.48 5805934.72 121.29
349020.57 5805935.6 121.36
349020.64 5805936.44 121.21
349020.73 5805937.32 121.35
349020.8 5805938.16 121.23
349020.89 5805939.08 121.38
349020.97 5805939.92 121.3
349021.05 5805940.81 121.34
349021.14 5805941.69 121.38
349021.21 5805942.56 121.3
349021.29 5805943.44 121.29
349021.46 5805944.54 122.23
349021.5 5805945.33 121.77
349021.57 5805946.18 121.62
349021.39 5805946.36 118.63
349021.48 5805947.27 118.64
349021.56 5805948.16 118.66
349021.65 5805949.07 118.7
349021.73 5805949.98 118.67
349021.82 5805950.88 118.7
349021.9 5805951.8 118.71
349021.99 5805952.72 118.77
349022.08 5805953.63 118.75
349022.17 5805954.56 118.81
349022.25 5805955.48 118.83
349022.56 5805956.99 121.4
349022.65 5805957.9 121.37
349022.74 5805958.84 121.43
349022.82 5805959.76 121.39
349022.91 5805960.69 121.42
349023 5805961.63 121.45
349023.09 5805962.58 121.5
349022.96 5805962.94 119
349023.04 5805963.87 118.97
349023.13 5805964.81 118.93
349023.22 5805965.75 118.95
349024.08 5805965.66 118.93
349023.99 5805964.71 118.89
349023.9 5805963.76 118.94
349023.82 5805962.82 118.93
349023.95 5805962.47 121.49
349023.86 5805961.49 121.39
349023.78 5805960.58 121.47
349023.69 5805959.63 121.39
349023.6 5805958.69 121.36
349023.52 5805957.78 121.42
349023.43 5805956.85 121.39
349023.12 5805955.31 118.76
349023.04 5805954.4 118.8
349022.95 5805953.47 118.76
349022.86 5805952.54 118.74
349022.77 5805951.61 118.68
349022.69 5805950.71 118.72
349022.61 5805949.78 118.66
349022.52 5805948.87 118.67
349022.43 5805947.95 118.6
349022.35 5805947.06 118.63
349022.27 5805946.14 118.59
349022.19 5805945.25 118.64
349022.1 5805944.35 118.55
349022.02 5805943.45 118.56
349021.94 5805942.55 118.55
349022.11 5805942.37 121.47
349022.03 5805941.48 121.48
349021.95 5805940.6 121.47
349021.87 5805939.72 121.47
349021.79 5805938.85 121.53
349021.7 5805937.93 121.43
349021.63 5805937.1 121.49
349021.55 5805936.22 121.41
349021.46 5805935.31 121.43
349021.39 5805934.45 121.42
349021.3 5805933.59 121.27
349021.33 5805933.01 122.57
349021.33 5805932.36 123.4
349021.67 5805932.27 123.49
349021.66 5805932.88 122.53
349021.64 5805933.46 121.36
349021.73 5805934.34 121.51
349021.81 5805935.2 121.53
349021.89 5805936.06 121.5
349021.98 5805936.94 121.57
349022.05 5805937.8 121.52
349022.14 5805938.69 121.61
349022.22 5805939.56 121.58
349022.29 5805940.41 121.51
349022.39 5805941.31 121.63
349022.45 5805942.16 121.46
349022.28 5805942.36 118.61
349022.36 5805943.23 118.57
349022.45 5805944.13 118.6
349022.53 5805945.01 118.57
349022.61 5805945.91 118.6
349022.7 5805946.81 118.6
349022.79 5805947.73 118.68
349022.87 5805948.61 118.63
349022.96 5805949.53 118.69
349023.04 5805950.44 118.67
349023.13 5805951.35 118.73
349023.21 5805952.25 118.71
349023.3 5805953.19 118.76
349023.38 5805954.09 118.76
349023.48 5805955.02 118.83
349023.78 5805956.54 121.35
349023.88 5805957.47 121.46
349023.96 5805958.4 121.48
349024.05 5805959.32 121.46
349024.13 5805960.24 121.47
349024.22 5805961.18 121.51
349024.31 5805962.12 121.5
349024.17 5805962.46 118.92
349024.26 5805963.41 118.99
349024.35 5805964.37 118.93
349024.44 5805965.29 119
349024.57 5805966.37 119.46
349025.43 5805965.83 119.14
349025.34 5805964.87 119.09
349025.31 5805964.05 119.68
349025.38 5805963.52 121.5
349025.29 5805962.58 121.49
349025.21 5805961.64 121.49
349025.12 5805960.7 121.47
349025.03 5805959.77 121.46
349024.94 5805958.83 121.43
349024.86 5805957.9 121.44
349024.79 5805957.01 121.57
349024.72 5805956.13 121.78
349024.39 5805954.55 118.93
349024.29 5805953.6 118.8
349024.2 5805952.66 118.66
349024.12 5805951.76 118.78
349024.12 5805951.06 119.66
349023.95 5805949.94 118.73
349023.86 5805949 118.63
349023.78 5805948.1 118.69
349023.69 5805947.18 118.58
349023.61 5805946.29 118.65
349023.53 5805945.4 118.69
349023.44 5805944.48 118.58
349023.36 5805943.58 118.55
349023.28 5805942.7 118.6
349023.27 5805942 119.37
349023.38 5805941.64 121.55
349023.3 5805940.74 121.53
349023.22 5805939.88 121.59
349023.14 5805939.01 121.57
349023.07 5805938.14 121.65
349022.98 5805937.26 121.61
349022.91 5805936.41 121.65
349022.83 5805935.53 121.63
349022.75 5805934.68 121.7
349022.67 5805933.81 121.63
349022.59 5805932.95 121.66
349022.65 5805932.48 123.22
349022.65 5805931.82 124.03
349022.94 5805931.87 123.03
349023.01 5805932.72 123.01
349022.98 5805933.26 121.72
349023.05 5805934.08 121.62
349023.13 5805934.94 121.61
349023.2 5805935.79 121.57
349023.29 5805936.68 121.64
349023.36 5805937.51 121.54
349023.45 5805938.4 121.64
349023.52 5805939.26 121.54
349023.6 5805940.12 121.53
349023.68 5805940.98 121.48
349023.77 5805941.87 121.51
349023.59 5805942.04 118.57
349023.67 5805942.94 118.61
349023.75 5805943.81 118.58
349023.84 5805944.72 118.62
349023.92 5805945.61 118.62
349024.01 5805946.52 118.69
349024.09 5805947.41 118.62
349024.18 5805948.3 118.66
349024.27 5805949.24 118.8
349024.44 5805950.39 119.81
349024.7 5805951.73 121.74
349024.78 5805952.65 121.77
349024.86 5805953.55 121.71
349024.95 5805954.47 121.77
349025.04 5805955.39 121.81
349025.13 5805956.32 121.87
349025.19 5805957.18 121.62
349025.26 5805958.06 121.42
349025.35 5805958.97 121.39
349025.44 5805959.91 121.45
349025.31 5805960.28 118.99
349025.4 5805961.21 119.03
349025.7 5805962.72 121.53
349025.78 5805963.63 121.39
349025.73 5805964.19 119.79
349025.73 5805964.93 118.88
349025.82 5805965.86 118.82
349026.8 5805966.31 118.84
349026.71 5805965.36 118.83
349026.66 5805964.5 119.22
349026.79 5805964.11 121.73
349026.71 5805963.19 121.81
349026.61 5805962.24 121.71
349026.67 5805961.65 123.29
349026.6 5805960.77 123.52
349026.36 5805959.44 121.73
349026.27 5805958.49 121.71
349026.19 5805957.57 121.71
349026.12 5805956.7 121.93
349026.06 5805955.84 122.21
349025.98 5805954.92 122.23
349025.9 5805954.01 122.24
349025.8 5805953.06 122.13
349025.73 5805952.17 122.18
349025.63 5805951.24 122.06
349025.56 5805950.34 122.15
349025.47 5805949.42 122.09
349025.39 5805948.54 122.14
349025.3 5805947.59 122.01
349025.19 5805946.64 121.75
349024.83 5805944.99 118.58
349024.75 5805944.09 118.58
349024.67 5805943.2 118.57
349024.59 5805942.32 118.61
349024.75 5805942.09 121.35
349024.66 5805941.19 121.3
349024.58 5805940.3 121.25
349024.5 5805939.44 121.31
349024.42 5805938.54 121.26
349024.34 5805937.68 121.29
349024.26 5805936.81 121.3
349024.19 5805935.95 121.34
349024.1 5805935.07 121.3
349024.04 5805934.24 121.42
349023.91 5805933.25 120.84
349023.85 5805932.44 121.13
349023.98 5805932.04 118.56
349024.06 5805932.9 118.51
349024.38 5805934.42 121.27
349024.47 5805935.28 121.31
349024.54 5805936.13 121.23
349024.62 5805937 121.28
349024.7 5805937.86 121.25
349024.78 5805938.74 121.29
349024.86 5805939.6 121.23
349024.94 5805940.48 121.25
349025.02 5805941.33 121.18
349025.1 5805942.23 121.19
349024.96 5805942.49 118.63
349025.03 5805943.36 118.58
349025.12 5805944.25 118.57
349025.2 5805945.14 118.6
349025.57 5805946.81 121.85
349025.68 5805947.77 122.17
349025.76 5805948.67 122.15
349025.85 5805949.58 122.19
349025.93 5805950.48 122.22
349026.02 5805951.4 122.26
349026.11 5805952.3 122.25
349026.2 5805953.23 122.38
349026.27 5805954.12 122.25
349026.36 5805955.05 122.32
349026.44 5805955.92 122.18
349026.49 5805956.78 121.86
349026.57 5805957.65 121.71
349026.66 5805958.59 121.82
349026.75 5805959.53 121.81
349026.98 5805960.83 123.53
349026.95 5805961.46 122.2
349027.02 5805962.34 121.94
349027.1 5805963.25 121.9
349027.17 5805964.14 121.71
349027.02 5805964.47 118.98
349027.1 5805965.38 118.86
349027.18 5805966.32 118.85
349028.07 5805966.02 118.83
349027.98 5805965.06 118.79
349027.9 5805964.12 118.85
349028.07 5805963.85 121.82
349028.01 5805962.99 122.2
349027.93 5805962.05 122.19
349027.85 5805961.14 122.3
349027.76 5805960.18 122.23
349027.67 5805959.23 122.15
349027.58 5805958.29 122.13
349027.49 5805957.37 122.13
349027.4 5805956.43 122.07
349027.35 5805955.58 122.43
349027.28 5805954.71 122.64
349027.2 5805953.81 122.66
349027.12 5805952.89 122.68
349027.03 5805951.96 122.62
349026.94 5805951.05 122.57
349026.86 5805950.13 122.56
349026.77 5805949.21 122.51
349026.69 5805948.3 122.47
349026.56 5805947.28 122.03
349026.19 5805945.59 118.68
349026.1 5805944.67 118.55
349026.02 5805943.78 118.59
349025.93 5805942.87 118.56
349025.97 5805942.32 119.95
349025.78 5805941.14 118.72
349025.72 5805940.29 118.9
349025.83 5805939.93 121.09
349025.75 5805939.05 121.07
349025.66 5805938.15 121
349025.59 5805937.31 121.15
349025.5 5805936.42 121.04
349025.43 5805935.55 121.06
349025.35 5805934.68 121.03
349025.04 5805933.18 118.45
349024.96 5805932.31 118.43
349025.27 5805932.26 118.43
349025.35 5805933.11 118.44
349025.43 5805933.99 118.53
349025.59 5805935.7 118.43
349025.76 5805936.81 119.46
349025.77 5805937.5 118.72
349025.85 5805938.37 118.7
349025.95 5805939.3 118.93
349026.03 5805940.16 118.88
349026.12 5805941.07 118.99
349026.17 5805941.87 118.63
349026.25 5805942.73 118.58
349026.33 5805943.63 118.61
349026.42 5805944.52 118.59
349026.5 5805945.41 118.63
349026.87 5805947.09 121.95
349027 5805948.1 122.41
349027.11 5805949.07 122.72
349027.2 5805949.98 122.81
349027.28 5805950.88 122.76
349027.37 5805951.79 122.81
349027.46 5805952.71 122.87
349027.54 5805953.61 122.8
349027.62 5805954.51 122.77
349027.68 5805955.37 122.54
349027.74 5805956.22 122.27
349027.83 5805957.15 122.31
349027.91 5805958.06 122.26
349028.01 5805959.01 122.37
349028.09 5805959.93 122.36
349028.18 5805960.87 122.4
349028.27 5805961.78 122.36
349028.35 5805962.71 122.29
349028.4 5805963.55 121.9
349028.24 5805963.84 119.05
349028.31 5805964.74 118.83
349028.4 5805965.68 118.84
349029.28 5805965.58 118.77
349029.23 5805964.75 119.25
349029.13 5805963.77 119.12
349029.29 5805963.47 121.95
349029.24 5805962.62 122.31
349029.18 5805961.74 122.64
349029.11 5805960.85 122.8
349029.01 5805959.89 122.66
349028.93 5805958.96 122.71
349028.84 5805958.04 122.71
349028.76 5805957.13 122.71
349028.67 5805956.18 122.66
349028.58 5805955.26 122.63
349028.53 5805954.41 122.92
349028.46 5805953.55 123.18
349028.38 5805952.64 123.2
349028.3 5805951.73 123.19
349028.21 5805950.8 123.11
349028.13 5805949.91 123.13
349028 5805948.88 122.63
349027.88 5805947.89 122.26
349027.77 5805946.9 121.85
